# .PCD v0.7 - Point Cloud Data file format
VERSION 0.7
FIELDS x y z intensity
SIZE 4 4 4 4
TYPE F F F F
COUNT 1 1 1 1
WIDTH 1324
HEIGHT 1
VIEWPOINT 0 0 0 1 0 0 0
POINTS 1324
DATA ascii
22.133173 -51.500824 -9.8840837 0
22.487253 -51.500828 -9.9089012 0
22.843128 -51.50082 -9.9341764 0
23.247551 -51.604664 -9.9799986 0
23.560347 -51.500824 -9.986125 0
23.921827 -51.500835 -10.012808 0
24.285236 -51.500835 -10.039968 0
24.650648 -51.500835 -10.06762 0
25.018112 -51.500839 -10.095763 0
25.387573 -51.500839 -10.124399 0
25.759205 -51.500843 -10.153544 0
26.133011 -51.500843 -10.1832 0
26.508974 -51.500847 -10.213367 0
26.88722 -51.500839 -10.244063 0
27.267776 -51.500851 -10.275291 0
27.650587 -51.500851 -10.307048 0
28.035851 -51.500847 -10.339353 0
28.423529 -51.500858 -10.372212 0
28.813723 -51.500851 -10.405632 0
29.206442 -51.500862 -10.439616 0
29.60169 -51.500862 -10.474174 0
29.999638 -51.500866 -10.509317 0
30.400288 -51.500866 -10.545055 0
30.803642 -51.50087 -10.581388 0
31.209845 -51.500874 -10.618327 0
31.618891 -51.500866 -10.655887 0
32.030804 -51.500877 -10.694069 0
32.445747 -51.500877 -10.73289 0
32.890171 -51.542286 -10.78102 0
22.133148 -51.50074 -8.5873623 0
22.487228 -51.500748 -8.6089249 0
22.843092 -51.500748 -8.6308861 0
23.24753 -51.604607 -8.6706982 0
23.560314 -51.500751 -8.6760149 0
23.921801 -51.500751 -8.6991987 0
24.285194 -51.500755 -8.7227983 0
24.650612 -51.500748 -8.7468224 0
25.018068 -51.500759 -8.7712717 0
25.387522 -51.500751 -8.7961483 0
25.759176 -51.500763 -8.8214712 0
26.132988 -51.500763 -8.8472366 0
26.508942 -51.500763 -8.8734465 0
26.887194 -51.500767 -8.900115 0
27.267719 -51.500767 -8.9272432 0
27.650528 -51.500771 -8.9548368 0
28.03581 -51.500763 -8.9829073 0
28.423483 -51.500774 -9.0114546 0
28.813673 -51.500774 -9.0404873 0
29.206398 -51.500771 -9.070015 0
29.601652 -51.500771 -9.1000385 0
29.999592 -51.500782 -9.1305704 0
30.40024 -51.500782 -9.1616182 0
30.803593 -51.500786 -9.193182 0
31.209791 -51.500786 -9.2252789 0
31.618841 -51.50079 -9.2579117 0
32.03075 -51.500782 -9.2910805 0
32.44569 -51.500793 -9.32481 0
32.891941 -51.545074 -9.3671474 0
22.13311 -51.500668 -7.2995648 0
22.487186 -51.500668 -7.3178935 0
22.843048 -51.500671 -7.3365598 0
23.247501 -51.604568 -7.3704052 0
23.56027 -51.500671 -7.3749223 0
23.921762 -51.500675 -7.39463 0
24.28516 -51.500675 -7.4146895 0
24.650574 -51.500675 -7.4351087 0
25.018032 -51.500679 -7.455893 0
25.387472 -51.500679 -7.4770398 0
25.759127 -51.500679 -7.4985633 0
26.132917 -51.500683 -7.5204625 0
26.508898 -51.500675 -7.5427451 0
26.887146 -51.500683 -7.5654149 0
27.267683 -51.500679 -7.5884757 0
27.650492 -51.500687 -7.6119275 0
28.035759 -51.500683 -7.6357875 0
28.423431 -51.500683 -7.6600537 0
28.813635 -51.500683 -7.6847358 0
29.206352 -51.500694 -7.7098355 0
29.601593 -51.500694 -7.7353539 0
29.999548 -51.500698 -7.7613101 0
30.400185 -51.500698 -7.7876992 0
30.803543 -51.500702 -7.8145308 0
31.209736 -51.500702 -7.8418136 0
31.618793 -51.500702 -7.8695521 0
32.030701 -51.500706 -7.8977485 0
32.445644 -51.500706 -7.9264207 0
32.893669 -51.547802 -7.9628415 0
22.133076 -51.500587 -6.0193 0
22.48716 -51.500591 -6.0344138 0
22.843021 -51.500591 -6.0498061 0
23.24748 -51.6045 -6.0777187 0
23.560219 -51.500595 -6.0814414 0
23.921719 -51.500595 -6.0976911 0
24.285116 -51.500595 -6.1142325 0
24.650536 -51.500595 -6.1310716 0
25.017994 -51.500599 -6.14821 0
25.387447 -51.500599 -6.165648 0
25.759094 -51.500599 -6.1833978 0
26.132887 -51.500603 -6.2014565 0
26.50885 -51.500603 -6.21983 0
26.887112 -51.500595 -6.2385221 0
27.267653 -51.500603 -6.2575402 0
27.650457 -51.500607 -6.2768798 0
28.035721 -51.500607 -6.2965531 0
28.423393 -51.500607 -6.3165641 0
28.813581 -51.50061 -6.3369155 0
29.206305 -51.50061 -6.3576131 0
29.601545 -51.500614 -6.3786569 0
29.999498 -51.500614 -6.4000602 0
30.400141 -51.500614 -6.4218211 0
30.803495 -51.500618 -6.4439464 0
31.209703 -51.500618 -6.4664454 0
31.618744 -51.50061 -6.4893184 0
32.030643 -51.500622 -6.5125699 0
32.445587 -51.500622 -6.5362115 0
32.888626 -51.539871 -6.5652466 0
22.133039 -51.500511 -4.7452178 0
22.487122 -51.500511 -4.757134 0
22.842989 -51.500511 -4.769268 0
23.247454 -51.604443 -4.7912736 0
23.560186 -51.500515 -4.7942057 0
23.921675 -51.500515 -4.8070173 0
24.285074 -51.500515 -4.8200574 0
24.650497 -51.500511 -4.8333321 0
25.017948 -51.500519 -4.8468413 0
25.387403 -51.500511 -4.8605895 0
25.759047 -51.500519 -4.8745813 0
26.132851 -51.500511 -4.8888187 0
26.508808 -51.500515 -4.9033027 0
26.887056 -51.500523 -4.9180393 0
27.267605 -51.500523 -4.9330301 0
27.650417 -51.500523 -4.948277 0
28.035673 -51.500526 -4.9637885 0
28.423351 -51.500526 -4.9795623 0
28.81353 -51.500526 -4.9956064 0
29.206257 -51.50053 -5.0119219 0
29.6015 -51.50053 -5.028512 0
29.999453 -51.50053 -5.0453835 0
30.400095 -51.50053 -5.0625396 0
30.803444 -51.500534 -5.0799818 0
31.209641 -51.500526 -5.0977168 0
31.618698 -51.500534 -5.1157494 0
32.030598 -51.500538 -5.1340799 0
32.44553 -51.500538 -5.1527166 0
32.890369 -51.542603 -5.1758885 0
22.133005 -51.500435 -3.4759898 0
22.487083 -51.500435 -3.4847188 0
22.842945 -51.500427 -3.4936066 0
23.247431 -51.604393 -3.5097291 0
23.56016 -51.500435 -3.5118742 0
23.92164 -51.500435 -3.5212593 0
24.28504 -51.500439 -3.5308118 0
24.650454 -51.500431 -3.5405345 0
25.017912 -51.500431 -3.5504317 0
25.387375 -51.500439 -3.5605025 0
25.759026 -51.500439 -3.5707526 0
26.132809 -51.500443 -3.581181 0
26.508772 -51.500443 -3.5917907 0
26.887016 -51.500443 -3.6025848 0
27.267557 -51.500443 -3.6135674 0
27.650362 -51.500435 -3.6247358 0
28.035641 -51.500435 -3.636097 0
28.423307 -51.500446 -3.6476526 0
28.81348 -51.500446 -3.6594043 0
29.206207 -51.500446 -3.6713567 0
29.601446 -51.500446 -3.6835089 0
29.999405 -51.500446 -3.6958685 0
30.40004 -51.500443 -3.7084355 0
30.803389 -51.50045 -3.7212119 0
31.209587 -51.50045 -3.7342043 0
31.618647 -51.50045 -3.7474141 0
32.030537 -51.500454 -3.7608399 0
32.44548 -51.500454 -3.7744927 0
32.892132 -51.545357 -3.7916751 0
22.132975 -51.500347 -2.2103066 0
22.48704 -51.500347 -2.2158556 0
22.842909 -51.500351 -2.221508 0
23.247406 -51.604336 -2.2317598 0
23.560133 -51.500359 -2.2331243 0
23.921619 -51.500359 -2.2390919 0
24.285017 -51.500359 -2.2451653 0
24.650421 -51.500359 -2.251349 0
25.017883 -51.500359 -2.2576427 0
25.387335 -51.500359 -2.2640452 0
25.758974 -51.500351 -2.2705626 0
26.132767 -51.500355 -2.277194 0
26.508732 -51.500355 -2.2839403 0
26.886978 -51.500362 -2.2908049 0
27.267511 -51.500362 -2.2977881 0
27.65033 -51.500362 -2.3048897 0
28.035597 -51.500355 -2.3121142 0
28.423262 -51.500362 -2.3194623 0
28.813448 -51.500366 -2.3269353 0
29.206163 -51.500366 -2.3345356 0
29.601418 -51.500366 -2.3422627 0
29.999355 -51.500366 -2.3501215 0
30.399996 -51.500366 -2.3581128 0
30.803349 -51.500366 -2.3662372 0
31.209539 -51.500366 -2.3744984 0
31.618586 -51.50037 -2.3828979 0
32.030483 -51.500362 -2.3914356 0
32.445427 -51.50037 -2.4001174 0
32.893852 -51.548065 -2.4111733 0
22.13294 -51.500278 -0.94687194 0
22.487019 -51.500271 -0.94924992 0
22.842892 -51.500278 -0.95167106 0
23.247379 -51.604282 -0.95606357 0
23.560097 -51.500278 -0.95664734 0
23.921583 -51.500278 -0.95920342 0
24.284973 -51.500278 -0.96180552 0
24.650393 -51.500278 -0.96445435 0
25.017836 -51.500282 -0.96715015 0
25.387299 -51.500282 -0.96989316 0
25.758938 -51.500282 -0.97268552 0
26.132729 -51.500275 -0.97552675 0
26.508686 -51.500282 -0.97841614 0
26.886934 -51.500282 -0.98135751 0
27.267469 -51.500282 -0.98434824 0
27.650282 -51.500282 -0.9873907 0
28.035549 -51.500282 -0.99048585 0
28.423212 -51.500282 -0.99363345 0
28.813393 -51.500282 -0.9968347 0
29.20612 -51.500282 -1.0000904 0
29.601364 -51.500282 -1.003401 0
29.999306 -51.500282 -1.0067675 0
30.399946 -51.500282 -1.0101905 0
30.803303 -51.500286 -1.0136714 0
31.209492 -51.500286 -1.0172102 0
31.618536 -51.500286 -1.0208082 0
32.030437 -51.500286 -1.024466 0
32.445362 -51.500286 -1.0281849 0
32.888737 -51.540054 -1.0327624 0
22.132904 -51.500195 0.31559661 0
22.486986 -51.500202 0.31638935 0
22.842844 -51.500195 0.31719616 0
23.247355 -51.604233 0.31866047 0
23.560061 -51.500202 0.31885484 0
23.921541 -51.500195 0.31970695 0
24.284931 -51.500202 0.32057407 0
24.650349 -51.500202 0.32145694 0
25.017799 -51.500202 0.32235554 0
25.387255 -51.500202 0.32326987 0
25.758898 -51.500195 0.32420042 0
26.132692 -51.500195 0.32514742 0
26.508656 -51.500202 0.32611039 0
26.886894 -51.500202 0.32709053 0
27.267424 -51.500202 0.32808784 0
27.65024 -51.500202 0.32910183 0
28.035511 -51.500202 0.33013323 0
28.423166 -51.500195 0.33118227 0
28.81336 -51.500202 0.33224967 0
29.206074 -51.500202 0.33333471 0
29.601315 -51.500202 0.33443788 0
29.999245 -51.500202 0.33555987 0
30.399899 -51.500202 0.33670095 0
30.803238 -51.500202 0.33786109 0
31.209427 -51.500202 0.33904055 0
31.618483 -51.500202 0.34024003 0
32.030376 -51.500202 0.34145907 0
32.445324 -51.500202 0.3426986 0
32.890442 -51.54274 0.34424284 0
22.132868 -51.500126 1.5783819 0
22.486944 -51.500126 1.5823451 0
22.84281 -51.500118 1.5863811 0
23.247332 -51.604179 1.5937052 0
23.560024 -51.500122 1.5946764 0
23.921497 -51.500114 1.5989374 0
24.284895 -51.500122 1.6032749 0
24.650314 -51.500122 1.6076906 0
25.017756 -51.500114 1.6121845 0
25.38722 -51.500122 1.616757 0
25.75885 -51.500114 1.6214112 0
26.132652 -51.500122 1.6261468 0
26.508606 -51.500122 1.6309648 0
26.886845 -51.500122 1.6358659 0
27.267389 -51.500122 1.6408528 0
27.650196 -51.500122 1.6459239 0
28.035454 -51.500122 1.6510835 0
28.423122 -51.500114 1.6563298 0
28.813307 -51.500122 1.6616666 0
29.206032 -51.500118 1.6670941 0
29.601276 -51.500118 1.6726121 0
29.999199 -51.500118 1.6782233 0
30.399845 -51.500118 1.6839303 0
30.80319 -51.500118 1.6897318 0
31.209387 -51.500118 1.695631 0
31.618437 -51.500118 1.7016293 0
32.030342 -51.500118 1.7077261 0
32.445271 -51.500118 1.7139254 0
32.892208 -51.545486 1.7217433 0
22.132843 -51.500046 2.8427668 0
22.486916 -51.500046 2.8499038 0
22.842785 -51.500046 2.8571742 0
23.247301 -51.604126 2.8703647 0
23.571224 -51.524624 2.8734837 0
23.940996 -51.542095 2.8821392 0
24.313086 -51.559898 2.8909554 0
24.687599 -51.57803 2.8999374 0
25.064581 -51.596485 2.909085 0
25.443987 -51.615295 2.9183986 0
25.826038 -51.634445 2.9278855 0
26.210705 -51.653954 2.9375467 0
26.598011 -51.673809 2.9473817 0
26.988073 -51.694027 2.957396 0
27.380951 -51.7146 2.9675922 0
27.776604 -51.735554 2.9779701 0
28.160011 -51.728886 2.9869201 0
28.458858 -51.564861 2.9869101 0
28.756788 -51.399075 2.9868999 0
29.053751 -51.231571 2.9868896 0
29.349669 -51.06237 2.9868793 0
29.644659 -50.891453 2.9868689 0
29.938654 -50.718803 2.9868584 0
30.231613 -50.544472 2.9868476 0
30.523586 -50.368435 2.9868369 0
30.814543 -50.19072 2.9868259 0
31.104406 -50.011356 2.986815 0
31.393263 -49.830273 2.986804 0
31.681086 -49.647526 2.9867928 0
31.967804 -49.463131 2.9867816 0
32.253468 -49.277058 2.9867702 0
32.53804 -49.089344 2.9867587 0
32.821514 -48.89999 2.986747 0
33.103897 -48.708992 2.9867353 0
33.385178 -48.516346 2.9867237 0
33.665325 -48.322102 2.9867117 0
33.944336 -48.126225 2.9866996 0
34.222179 -47.928768 2.9866877 0
34.498917 -47.72966 2.9866755 0
34.774502 -47.528946 2.9866631 0
35.048889 -47.326683 2.9866507 0
35.322109 -47.12281 2.9866383 0
35.594112 -46.917351 2.9866257 0
35.864944 -46.710342 2.986613 0
36.134583 -46.501751 2.9866004 0
36.403008 -46.291603 2.9865875 0
36.670197 -46.079903 2.9865744 0
16.080029 -37.415985 2.9860444 0
16.296318 -37.322201 2.9860387 0
16.512062 -37.227165 2.986033 0
16.727217 -37.130898 2.986027 0
16.941845 -37.033371 2.986021 0
17.155912 -36.934612 2.9860151 0
17.369373 -36.834614 2.9860089 0
17.58227 -36.733368 2.9860027 0
17.79458 -36.630898 2.9859965 0
18.006248 -36.527206 2.98599 0
18.217367 -36.422287 2.9859836 0
18.427858 -36.316139 2.9859772 0
18.637716 -36.208794 2.9859707 0
18.846966 -36.100208 2.9859641 0
19.05559 -35.990433 2.9859574 0
19.263529 -35.879452 2.9859505 0
19.470863 -35.767254 2.9859436 0
19.677519 -35.653881 2.9859366 0
19.88353 -35.539276 2.9859297 0
20.088886 -35.4235 2.9859226 0
20.293522 -35.306553 2.9859154 0
20.497513 -35.1884 2.9859083 0
20.700813 -35.069069 2.9859009 0
20.903412 -34.948582 2.9858935 0
21.105318 -34.826897 2.9858861 0
21.306517 -34.70406 2.9858787 0
21.506962 -34.580067 2.9858711 0
21.706717 -34.454891 2.9858634 0
21.90575 -34.328568 2.9858556 0
22.104029 -34.201111 2.9858479 0
22.301586 -34.072498 2.9858401 0
22.498381 -33.942753 2.985832 0
22.694405 -33.811859 2.9858241 0
22.889687 -33.679832 2.985816 0
23.084213 -33.546665 2.9858079 0
23.277939 -33.412395 2.9857996 0
23.470898 -33.277 2.9857912 0
23.66304 -33.140503 2.9857829 0
23.854427 -33.002869 2.9857745 0
24.044998 -32.864136 2.9857659 0
24.23476 -32.724316 2.9857576 0
24.423714 -32.583382 2.9857488 0
24.611835 -32.441364 2.9857402 0
24.799124 -32.298275 2.9857314 0
24.985609 -32.154076 2.9857225 0
25.171244 -32.008801 2.9857137 0
25.35603 -31.862473 2.9857047 0
12.27863 -28.57066 2.9855034 0
12.443792 -28.499058 2.9854989 0
12.608547 -28.426508 2.9854946 0
12.77284 -28.353012 2.9854901 0
12.936737 -28.278559 2.9854856 0
13.100196 -28.20315 2.985481 0
13.263204 -28.126801 2.9854763 0
13.425784 -28.049517 2.9854715 0
13.587911 -27.971279 2.9854667 0
13.74955 -27.892118 2.985462 0
13.91076 -27.812012 2.9854569 0
14.071505 -27.730982 2.9854519 0
14.231756 -27.649017 2.9854469 0
14.39155 -27.566122 2.9854419 0
14.550858 -27.482304 2.9854369 0
14.70965 -27.397573 2.9854317 0
14.86798 -27.311914 2.9854264 0
15.025789 -27.225361 2.9854212 0
15.183113 -27.137871 2.9854157 0
15.339928 -27.049475 2.9854105 0
15.496193 -26.960182 2.985405 0
15.65197 -26.869987 2.9853992 0
15.807221 -26.778868 2.9853938 0
15.961932 -26.686882 2.985388 0
16.116119 -26.593981 2.9853826 0
16.269766 -26.500187 2.9853768 0
16.422844 -26.405529 2.9853709 0
16.575384 -26.309967 2.9853652 0
16.727383 -26.213522 2.9853592 0
16.878799 -26.116213 2.9853532 0
17.029657 -26.018009 2.9853473 0
17.179941 -25.918951 2.9853411 0
17.329645 -25.819025 2.9853351 0
17.478781 -25.71822 2.9853289 0
17.627329 -25.616554 2.9853227 0
17.775267 -25.51404 2.9853165 0
17.922625 -25.41066 2.9853101 0
18.069361 -25.306446 2.9853036 0
18.215511 -25.201368 2.9852972 0
18.361053 -25.095451 2.9852908 0
18.505962 -24.988693 2.9852843 0
18.650269 -24.881096 2.9852777 0
18.793928 -24.772663 2.985271 0
18.936968 -24.663414 2.9852643 0
19.079378 -24.553322 2.9852576 0
19.221148 -24.442413 2.9852509 0
19.362259 -24.330685 2.985244 0
9.9226933 -23.08872 2.985168 0
10.056168 -23.030865 2.9851644 0
10.189311 -22.972231 2.9851608 0
10.322088 -22.912846 2.9851573 0
10.454534 -22.852686 2.9851537 0
10.586636 -22.791752 2.9851499 0
10.718372 -22.730068 2.985146 0
10.849756 -22.667612 2.9851422 0
10.98078 -22.604399 2.9851384 0
11.111408 -22.540434 2.9851346 0
11.241695 -22.475702 2.9851305 0
11.371596 -22.410215 2.9851265 0
11.501104 -22.343994 2.9851224 0
11.63024 -22.277012 2.9851184 0
11.758985 -22.209282 2.9851143 0
11.887316 -22.140816 2.98511 0
12.015273 -22.071602 2.9851058 0
12.142807 -22.001656 2.9851015 0
12.269949 -21.930962 2.9850972 0
12.396678 -21.859535 2.9850929 0
12.522974 -21.787388 2.9850883 0
12.648866 -21.714497 2.9850841 0
12.774334 -21.640884 2.9850795 0
12.899362 -21.566544 2.985075 0
13.023971 -21.49148 2.9850702 0
13.148141 -21.415688 2.9850657 0
13.271849 -21.339199 2.9850609 0
13.395134 -21.261978 2.9850564 0
13.517973 -21.184042 2.9850516 0
13.640341 -21.105415 2.9850466 0
13.762262 -21.026064 2.9850419 0
13.883718 -20.946014 2.9850368 0
14.004703 -20.865269 2.9850321 0
14.125226 -20.783813 2.9850271 0
14.245282 -20.701664 2.9850221 0
14.364844 -20.618822 2.9850171 0
14.483937 -20.535288 2.9850118 0
14.602526 -20.451084 2.9850066 0
14.72064 -20.366171 2.9850016 0
14.838261 -20.280581 2.9849963 0
14.955378 -20.194321 2.9849911 0
15.072001 -20.107372 2.9849856 0
15.18811 -20.01976 2.9849803 0
15.303705 -19.931471 2.9849749 0
15.4188 -19.842512 2.9849694 0
15.533376 -19.752892 2.9849639 0
15.647421 -19.662609 2.9849584 0
8.3181095 -19.355068 2.9849396 0
8.4299994 -19.306572 2.9849367 0
8.5416117 -19.257431 2.9849334 0
8.6529255 -19.207657 2.9849305 0
8.7639503 -19.157217 2.9849274 0
8.8746977 -19.106142 2.9849243 0
8.9851284 -19.054438 2.9849212 0
9.0952682 -19.002085 2.9849181 0
9.2051058 -18.949097 2.9849148 0
9.3146095 -18.895483 2.9849114 0
9.42383 -18.841221 2.9849079 0
9.5327301 -18.786333 2.9849048 0
9.6412992 -18.73082 2.9849014 0
9.7495575 -18.674673 2.9848981 0
9.8574858 -18.617901 2.9848945 0
9.965065 -18.560513 2.9848914 0
10.072326 -18.502495 2.9848874 0
10.179244 -18.443863 2.9848838 0
10.28583 -18.384604 2.9848802 0
10.39207 -18.324732 2.9848766 0
10.497945 -18.264254 2.9848728 0
10.60348 -18.203159 2.984869 0
10.708665 -18.141445 2.9848654 0
10.813482 -18.07913 2.9848616 0
10.917939 -18.016211 2.9848578 0
11.022035 -17.952684 2.9848537 0
11.12574 -17.888565 2.9848499 0
11.229091 -17.823837 2.9848459 0
11.332069 -17.758516 2.9848421 0
11.434651 -17.692598 2.984838 0
11.536864 -17.626083 2.984834 0
11.638683 -17.558985 2.9848297 0
11.740107 -17.491304 2.9848256 0
11.841146 -17.423021 2.9848216 0
11.941789 -17.354164 2.9848173 0
12.042022 -17.284721 2.984813 0
12.141861 -17.214697 2.9848087 0
12.241276 -17.144112 2.9848044 0
12.340299 -17.072945 2.9848001 0
12.438905 -17.001192 2.9847956 0
12.537086 -16.928886 2.9847913 0
12.634852 -16.856001 2.9847867 0
12.732185 -16.782558 2.9847822 0
12.829097 -16.708555 2.9847777 0
12.925585 -16.633984 2.9847732 0
13.02164 -16.558857 2.9847686 0
13.117248 -16.483179 2.9847639 0
7.1538596 -16.64603 2.9847739 0
7.2500949 -16.604321 2.9847713 0
7.3460865 -16.562059 2.9847689 0
7.4418139 -16.519253 2.9847662 0
7.537312 -16.475883 2.9847636 0
7.6325536 -16.431957 2.9847608 0
7.7275281 -16.387489 2.9847581 0
7.8222556 -16.342466 2.9847553 0
7.9167223 -16.29689 2.9847527 0
8.0109005 -16.250792 2.9847498 0
8.1048336 -16.204126 2.9847469 0
8.1984901 -16.156919 2.9847441 0
8.2918711 -16.109179 2.984741 0
8.3849716 -16.060894 2.9847381 0
8.4777975 -16.01207 2.984735 0
8.5703154 -15.962721 2.9847322 0
8.662571 -15.912827 2.9847291 0
8.7545252 -15.862398 2.984726 0
8.8461962 -15.811441 2.9847229 0
8.9375677 -15.759947 2.9847198 0
9.0286226 -15.70794 2.9847164 0
9.1193895 -15.655396 2.9847133 0
9.2098541 -15.602325 2.98471 0
9.3000002 -15.548737 2.9847069 0
9.3898392 -15.494625 2.9847035 0
9.4793682 -15.439991 2.9847002 0
9.5685644 -15.38485 2.9846969 0
9.6574507 -15.32919 2.9846933 0
9.7460184 -15.273008 2.98469 0
9.8342476 -15.216324 2.9846864 0
9.9221544 -15.159122 2.984683 0
10.009718 -15.101412 2.9846795 0
10.096954 -15.043204 2.9846759 0
10.183853 -14.984488 2.9846723 0
10.270411 -14.92526 2.9846687 0
10.356617 -14.865547 2.9846649 0
10.442483 -14.805328 2.9846613 0
10.527987 -14.74462 2.9846575 0
10.61315 -14.683414 2.9846539 0
10.697958 -14.62171 2.9846501 0
10.782401 -14.559527 2.9846463 0
10.866488 -14.496846 2.9846425 0
10.950202 -14.433687 2.9846387 0
11.033554 -14.37004 2.9846346 0
11.11654 -14.305919 2.9846308 0
11.199149 -14.241304 2.9846268 0
11.281383 -14.176222 2.9846227 0
6.2697706 -14.588878 2.984648 0
6.3541126 -14.552325 2.9846458 0
6.438242 -14.515289 2.9846435 0
6.522141 -14.477775 2.9846413 0
6.6058335 -14.439767 2.9846389 0
6.6893039 -14.40127 2.9846365 0
6.7725501 -14.362296 2.9846342 0
6.8555698 -14.322838 2.9846318 0
6.9383612 -14.282907 2.9846294 0
7.0209036 -14.242496 2.9846268 0
7.1032267 -14.201602 2.9846244 0
7.1853142 -14.160235 2.9846218 0
7.2671499 -14.118394 2.9846194 0
7.3487477 -14.076075 2.9846168 0
7.4301043 -14.033292 2.9846141 0
7.5111928 -13.990035 2.9846115 0
7.5920477 -13.946309 2.9846087 0
7.6726394 -13.902115 2.984606 0
7.7529778 -13.857462 2.9846034 0
7.8330593 -13.812335 2.9846005 0
7.912868 -13.766754 2.9845977 0
7.9924188 -13.720704 2.9845951 0
8.071702 -13.674195 2.9845922 0
8.1507072 -13.627228 2.9845893 0
8.2294483 -13.57981 2.9845862 0
8.3079166 -13.53193 2.9845834 0
8.3860855 -13.4836 2.9845805 0
8.4639921 -13.434815 2.9845774 0
8.5416126 -13.385582 2.9845746 0
8.6189375 -13.335904 2.9845715 0
8.695982 -13.285772 2.9845684 0
8.7727299 -13.235201 2.9845653 0
8.849185 -13.184185 2.9845622 0
8.9253454 -13.132726 2.9845591 0
9.0012102 -13.080821 2.9845557 0
9.0767651 -13.028487 2.9845526 0
9.1520214 -12.975714 2.9845493 0
9.2269611 -12.92251 2.9845462 0
9.3016005 -12.868873 2.9845428 0
9.3759289 -12.814795 2.9845395 0
9.4499378 -12.760299 2.9845362 0
9.5236378 -12.705367 2.9845328 0
9.5970087 -12.650011 2.9845295 0
9.6700554 -12.594239 2.9845262 0
9.7427893 -12.538033 2.9845226 0
9.8151932 -12.481407 2.9845192 0
9.8872662 -12.424371 2.9845157 0
5.5749478 -12.972124 2.984549 0
5.6499429 -12.939624 2.9845471 0
5.7247467 -12.906691 2.9845452 0
5.7993522 -12.873336 2.9845431 0
5.8737712 -12.839537 2.9845409 0
5.9479961 -12.805313 2.984539 0
6.0220122 -12.77066 2.9845369 0
6.0958304 -12.735577 2.9845347 0
6.169446 -12.700065 2.9845326 0
6.242846 -12.664137 2.9845302 0
6.3160477 -12.627774 2.9845281 0
6.3890395 -12.590997 2.9845259 0
6.4617996 -12.55379 2.9845235 0
6.5343633 -12.516168 2.9845212 0
6.6066985 -12.478121 2.984519 0
6.6788039 -12.439669 2.9845166 0
6.7506986 -12.400782 2.9845142 0
6.8223577 -12.36149 2.9845119 0
6.8937979 -12.321778 2.9845095 0
6.9650064 -12.281656 2.9845068 0
7.0359659 -12.241124 2.9845045 0
7.1067047 -12.200187 2.9845018 0
7.1772013 -12.158829 2.9844995 0
7.2474527 -12.117071 2.9844968 0
7.3174701 -12.074903 2.9844942 0
7.3872404 -12.03233 2.9844916 0
7.4567494 -11.989367 2.984489 0
7.5260258 -11.945987 2.9844863 0
7.5950418 -11.902208 2.9844837 0
7.6638041 -11.858038 2.9844811 0
7.7323098 -11.813463 2.9844782 0
7.8005509 -11.768492 2.9844756 0
7.8685341 -11.723136 2.9844728 0
7.9362564 -11.677379 2.9844699 0
8.0037146 -11.631231 2.984467 0
8.0709 -11.584703 2.9844642 0
8.1378155 -11.537774 2.9844613 0
8.2044535 -11.49047 2.9844584 0
8.2708197 -11.442774 2.9844556 0
8.3369169 -11.394693 2.9844527 0
8.4027205 -11.346236 2.9844496 0
8.468255 -11.297394 2.9844468 0
8.533493 -11.248175 2.9844437 0
8.5984516 -11.19858 2.9844406 0
8.6631241 -11.148604 2.9844377 0
8.7275066 -11.098258 2.9844346 0
8.7915907 -11.047544 2.9844315 0
5.0139775 -11.666821 2.9844694 0
5.0814276 -11.637597 2.9844675 0
5.1487079 -11.607979 2.9844656 0
5.2158036 -11.577978 2.9844639 0
5.2827349 -11.547583 2.984462 0
5.3494916 -11.516802 2.9844601 0
5.4160576 -11.48564 2.9844582 0
5.4824538 -11.454087 2.9844563 0
5.5486612 -11.422149 2.9844544 0
5.6146722 -11.389839 2.9844525 0
5.6805096 -11.357134 2.9844503 0
5.7461538 -11.324054 2.9844484 0
5.8116031 -11.290597 2.9844463 0
5.8768606 -11.256763 2.9844441 0
5.9419193 -11.222545 2.9844422 0
6.0067677 -11.187955 2.9844401 0
6.0714273 -11.152989 2.9844379 0
6.1358771 -11.117652 2.9844358 0
6.2001314 -11.08194 2.9844334 0
6.264173 -11.045851 2.9844313 0
6.3279939 -11.009405 2.9844291 0
6.3916144 -10.972579 2.9844267 0
6.4550204 -10.935382 2.9844246 0
6.5182028 -10.897833 2.9844222 0
6.5811739 -10.859908 2.9844201 0
6.6439266 -10.821622 2.9844177 0
6.7064414 -10.782974 2.9844153 0
6.7687449 -10.743966 2.9844129 0
6.8308187 -10.704596 2.9844105 0
6.8926597 -10.664869 2.9844079 0
6.9542756 -10.624782 2.9844055 0
7.0156517 -10.584342 2.9844031 0
7.0767965 -10.543546 2.9844005 0
7.1377048 -10.502394 2.9843981 0
7.1983747 -10.460895 2.9843955 0
7.2587996 -10.419039 2.9843929 0
7.318984 -10.376837 2.9843905 0
7.3789144 -10.334292 2.9843879 0
7.4386082 -10.291397 2.9843853 0
7.498054 -10.24815 2.9843826 0
7.557241 -10.204571 2.9843798 0
7.6161752 -10.160645 2.9843771 0
7.6748557 -10.116383 2.9843745 0
7.7332749 -10.071778 2.9843717 0
7.7914424 -10.026832 2.984369 0
7.8493476 -9.981554 2.9843662 0
7.9069843 -9.9359436 2.9843633 0
4.5511522 -10.589892 2.9844034 0
4.6123738 -10.563359 2.9844017 0
4.6734457 -10.536474 2.9844003 0
4.7343478 -10.509248 2.9843986 0
4.7950997 -10.48166 2.9843967 0
4.8556943 -10.453721 2.984395 0
4.9161167 -10.425434 2.9843934 0
4.9763865 -10.396797 2.9843917 0
5.0364828 -10.367803 2.9843898 0
5.0963988 -10.338471 2.9843881 0
5.1561604 -10.308794 2.9843862 0
5.2157445 -10.278769 2.9843843 0
5.2751536 -10.248393 2.9843826 0
5.3343821 -10.217681 2.9843807 0
5.3934398 -10.186625 2.9843788 0
5.4523067 -10.155234 2.9843769 0
5.5109959 -10.123491 2.984375 0
5.5694981 -10.091416 2.9843729 0
5.6278172 -10.058999 2.9843709 0
5.6859484 -10.026245 2.984369 0
5.7438788 -9.993165 2.9843669 0
5.8016281 -9.9597368 2.984365 0
5.8591805 -9.9259825 2.9843628 0
5.916533 -9.8918905 2.9843607 0
5.9736924 -9.8574762 2.9843585 0
6.0306501 -9.8227205 2.9843564 0
6.0873957 -9.7876425 2.9843543 0
6.1439486 -9.7522373 2.9843521 0
6.2002964 -9.7164946 2.98435 0
6.2564278 -9.6804399 2.9843478 0
6.3123555 -9.6440535 2.9843457 0
6.3680687 -9.6073446 2.9843433 0
6.4235678 -9.5703182 2.9843411 0
6.4788547 -9.5329695 2.9843388 0
6.5339265 -9.4952936 2.9843364 0
6.5887728 -9.4573059 2.9843342 0
6.6434016 -9.4189997 2.9843318 0
6.6978025 -9.3803864 2.9843295 0
6.7519846 -9.3414459 2.9843271 0
6.8059421 -9.3021984 2.9843247 0
6.8596663 -9.2626381 2.9843223 0
6.9131675 -9.222765 2.9843197 0
6.9664302 -9.1825886 2.9843173 0
7.0194564 -9.1421051 2.9843149 0
7.0722542 -9.1013098 2.9843123 0
7.124814 -9.0602112 2.9843099 0
7.1771345 -9.0188093 2.9843073 0
4.1624227 -9.6853714 2.9843481 0
4.21842 -9.6611128 2.9843466 0
4.274272 -9.6365232 2.9843452 0
4.3299727 -9.6116161 2.984344 0
4.3855343 -9.5863867 2.9843421 0
4.4409542 -9.5608349 2.9843404 0
4.4962177 -9.5349655 2.984339 0
4.5513353 -9.508769 2.9843373 0
4.6062999 -9.4822607 2.9843357 0
4.6611009 -9.4554348 2.984334 0
4.7157578 -9.4282913 2.9843323 0
4.7702537 -9.4008303 2.9843307 0
4.8245869 -9.3730564 2.984329 0
4.8787608 -9.3449659 2.9843273 0
4.9327717 -9.3165579 2.9843261 0
4.9866085 -9.2878466 2.9843237 0
5.0402889 -9.2588234 2.9843221 0
5.0937924 -9.2294874 2.9843202 0
5.1471334 -9.1998386 2.9843185 0
5.2002997 -9.1698828 2.9843166 0
5.2532821 -9.1396236 2.9843147 0
5.306097 -9.1090527 2.9843128 0
5.3587351 -9.0781832 2.9843109 0
5.4111876 -9.0470018 2.984309 0
5.4634652 -9.015522 2.9843068 0
5.5155602 -8.9837399 2.9843051 0
5.5674605 -8.9516602 2.9843032 0
5.6191816 -8.9192772 2.9843013 0
5.6707187 -8.8865967 2.9842992 0
5.722054 -8.8536139 2.9842973 0
5.7732077 -8.8203382 2.9842951 0
5.8241611 -8.7867632 2.9842932 0
5.8749189 -8.7529011 2.9842911 0
5.9254856 -8.7187414 2.9842887 0
5.975853 -8.684288 2.9842868 0
6.0260167 -8.6495466 2.9842846 0
6.0759821 -8.6145077 2.9842825 0
6.1257358 -8.579195 2.9842803 0
6.1752901 -8.5435848 2.9842782 0
6.2246361 -8.5076818 2.9842761 0
6.2737765 -8.4715099 2.9842739 0
6.3227024 -8.4350395 2.9842715 0
6.3714194 -8.3982964 2.9842694 0
6.4199181 -8.3612709 2.984267 0
6.4682088 -8.3239555 2.9842649 0
6.5162826 -8.2863731 2.9842625 0
6.5641294 -8.2485065 2.9842601 0
3.831002 -8.9142036 2.9843009 0
3.8825388 -8.89188 2.9842997 0
3.9339437 -8.8692484 2.9842982 0
3.9852097 -8.8463278 2.9842968 0
4.0363522 -8.8231058 2.9842954 0
4.0873594 -8.7995853 2.9842939 0
4.1382213 -8.7757711 2.9842925 0
4.188951 -8.7516699 2.9842911 0
4.2395406 -8.7272701 2.9842894 0
4.289979 -8.7025785 2.984288 0
4.3402829 -8.677598 2.9842865 0
4.3904414 -8.652319 2.9842849 0
4.4404454 -8.6267576 2.9842834 0
4.4903097 -8.6009035 2.9842818 0
4.5400181 -8.5747604 2.9842801 0
4.58957 -8.5483351 2.9842784 0
4.6389742 -8.5216208 2.984277 0
4.6882186 -8.4946241 2.9842753 0
4.7373128 -8.4673338 2.9842737 0
4.7862458 -8.4397707 2.984272 0
4.8350105 -8.4119186 2.9842701 0
4.8836226 -8.3837843 2.9842684 0
4.9320674 -8.3553715 2.9842668 0
4.9803462 -8.3266745 2.9842651 0
5.0284615 -8.2976999 2.9842632 0
5.076407 -8.2684469 2.9842615 0
5.1241755 -8.2389259 2.9842596 0
5.1717796 -8.2091208 2.9842577 0
5.2192135 -8.1790333 2.984256 0
5.2664633 -8.1486864 2.9842541 0
5.3135409 -8.1180563 2.9842522 0
5.3604403 -8.0871582 2.9842503 0
5.4071555 -8.0559912 2.9842484 0
5.4536972 -8.0245504 2.9842465 0
5.5000558 -7.9928417 2.9842446 0
5.5462227 -7.9608641 2.9842427 0
5.5922122 -7.928618 2.9842405 0
5.6380029 -7.8961134 2.9842386 0
5.6836147 -7.8633399 2.9842367 0
5.7290359 -7.8303027 2.9842346 0
5.7742591 -7.7970018 2.9842327 0
5.8192935 -7.7634425 2.9842305 0
5.8641272 -7.7296238 2.9842284 0
5.9087658 -7.6955466 2.9842265 0
5.9532142 -7.6612062 2.9842243 0
5.9974575 -7.6266112 2.9842222 0
6.0414977 -7.5917625 2.98422 0
3.5448205 -8.2482958 2.9842601 0
3.5925074 -8.2276316 2.9842589 0
3.6400733 -8.2066994 2.9842577 0
3.6875098 -8.1854935 2.9842563 0
3.7348316 -8.1640043 2.9842551 0
3.7820263 -8.1422415 2.9842536 0
3.8290894 -8.1202097 2.9842525 0
3.8760314 -8.0979052 2.984251 0
3.9228406 -8.0753269 2.9842496 0
3.9695091 -8.0524807 2.9842482 0
4.0160556 -8.0293655 2.9842467 0
4.0624666 -8.0059814 2.9842453 0
4.1087375 -7.9823289 2.9842439 0
4.1548762 -7.9584031 2.9842424 0
4.2008729 -7.9342189 2.984241 0
4.2467237 -7.9097657 2.9842396 0
4.292439 -7.8850441 2.9842379 0
4.3380041 -7.8600636 2.9842365 0
4.3834291 -7.8348145 2.9842348 0
4.4287086 -7.8093066 2.9842334 0
4.4738297 -7.783535 2.9842317 0
4.5188112 -7.7575049 2.9842303 0
4.5636401 -7.731216 2.9842286 0
4.6083107 -7.7046633 2.9842269 0
4.6528296 -7.6778517 2.9842253 0
4.697196 -7.6507859 2.9842236 0
4.7413964 -7.623467 2.9842219 0
4.7854433 -7.5958886 2.9842203 0
4.8293324 -7.5680518 2.9842186 0
4.8730555 -7.5399709 2.9842169 0
4.9166174 -7.511631 2.984215 0
4.9600124 -7.4830418 2.9842134 0
5.0032401 -7.4541993 2.9842117 0
5.0463028 -7.4251075 2.9842098 0
5.0891995 -7.3957667 2.9842081 0
5.1319189 -7.3661819 2.9842062 0
5.1744714 -7.3363476 2.9842043 0
5.2168436 -7.3062696 2.9842026 0
5.2590456 -7.2759423 2.9842007 0
5.3010745 -7.2453761 2.9841988 0
5.3429189 -7.2145653 2.9841969 0
5.3845887 -7.1835108 2.984195 0
5.4260755 -7.1522169 2.9841931 0
5.467382 -7.1206837 2.9841912 0
5.5085058 -7.0889158 2.9841893 0
5.5494471 -7.0569043 2.9841874 0
5.590198 -7.0246534 2.9841852 0
3.2949657 -7.6669235 2.9842246 0
3.3392932 -7.6477194 2.9842234 0
3.3835046 -7.6282611 2.9842222 0
3.4275975 -7.6085396 2.984221 0
3.4715831 -7.5885687 2.9842198 0
3.5154541 -7.5683441 2.9842186 0
3.5592003 -7.5478659 2.9842174 0
3.6028321 -7.5271335 2.984216 0
3.6463439 -7.5061469 2.9842148 0
3.6897254 -7.4849114 2.9842136 0
3.7329907 -7.4634271 2.9842122 0
3.7761302 -7.441689 2.9842107 0
3.8191392 -7.4197016 2.9842095 0
3.862025 -7.3974652 2.9842081 0
3.9047801 -7.37498 2.9842067 0
3.9473999 -7.3522553 2.9842055 0
3.9898925 -7.329277 2.9842041 0
4.0322452 -7.3060589 2.9842026 0
4.0744705 -7.2825923 2.9842012 0
4.1165566 -7.2588768 2.9841998 0
4.1585011 -7.2349267 2.9841981 0
4.2003078 -7.2107325 2.9841967 0
4.2419791 -7.1862888 2.9841952 0
4.2834988 -7.1616116 2.9841938 0
4.3248854 -7.1366944 2.9841921 0
4.3661218 -7.1115332 2.9841907 0
4.4072061 -7.0861378 2.984189 0
4.4481483 -7.060503 2.9841876 0
4.4889455 -7.0346336 2.9841859 0
4.5295854 -7.0085301 2.9841843 0
4.5700784 -6.9821873 2.9841828 0
4.610414 -6.955615 2.9841812 0
4.6505971 -6.9288039 2.9841795 0
4.6906238 -6.9017625 2.9841778 0
4.7304945 -6.8744922 2.9841762 0
4.770205 -6.846992 2.9841745 0
4.8097587 -6.8192625 2.9841728 0
4.8491445 -6.7913036 2.9841712 0
4.8883743 -6.7631154 2.9841692 0
4.9274392 -6.7347021 2.9841676 0
4.9663358 -6.7060595 2.9841659 0
5.0050712 -6.6771975 2.984164 0
5.0436316 -6.6481104 2.9841623 0
5.0820279 -6.6188035 2.9841604 0
5.1202526 -6.5892677 2.9841588 0
5.1583071 -6.5595164 2.9841568 0
5.1961865 -6.529541 2.9841549 0
3.0747266 -7.1544528 2.9841933 0
3.1160927 -7.1365328 2.9841921 0
3.1573489 -7.1183786 2.9841912 0
3.1984951 -7.0999799 2.98419 0
3.2395401 -7.0813422 2.9841888 0
3.2804775 -7.0624704 2.9841876 0
3.3213003 -7.0433588 2.9841864 0
3.3620167 -7.024013 2.9841852 0
3.4026186 -7.0044284 2.984184 0
3.4430983 -6.9846139 2.9841828 0
3.4834754 -6.9645648 2.9841816 0
3.5237293 -6.9442768 2.9841805 0
3.5638661 -6.9237595 2.9841793 0
3.6038845 -6.9030123 2.9841778 0
3.6437831 -6.882031 2.9841766 0
3.6835513 -6.8608246 2.9841752 0
3.7232058 -6.8393841 2.984174 0
3.7627273 -6.8177195 2.9841726 0
3.8021302 -6.795815 2.9841714 0
3.841404 -6.7736907 2.98417 0
3.8805447 -6.7513423 2.9841685 0
3.9195583 -6.7287641 2.9841673 0
3.9584413 -6.7059565 2.9841659 0
3.9971902 -6.6829243 2.9841645 0
4.0358071 -6.6596723 2.984163 0
4.0742884 -6.6362009 2.9841616 0
4.112627 -6.6125002 2.9841602 0
4.150835 -6.5885839 2.9841588 0
4.1889029 -6.5644336 2.9841571 0
4.2268286 -6.5400782 2.9841557 0
4.2646132 -6.5154982 2.9841542 0
4.3022537 -6.4906983 2.9841526 0
4.3397498 -6.4656835 2.9841511 0
4.3771024 -6.4404492 2.9841497 0
4.4143105 -6.415 2.984148 0
4.4513659 -6.3893409 2.9841464 0
4.4882755 -6.363462 2.9841449 0
4.5250297 -6.337378 2.9841433 0
4.561636 -6.3110743 2.9841416 0
4.5980897 -6.2845559 2.9841402 0
4.6343875 -6.2578273 2.9841385 0
4.6705313 -6.2308984 2.9841368 0
4.7065187 -6.2037501 2.9841352 0
4.7423439 -6.1764064 2.9841335 0
4.7780151 -6.1488428 2.9841318 0
4.8135281 -6.121079 2.9841301 0
4.848877 -6.0931106 2.9841282 0
2.8789444 -6.6989007 2.9841654 0
2.9176736 -6.6821189 2.9841645 0
2.9563038 -6.6651168 2.9841633 0
2.9948306 -6.6478853 2.9841623 0
3.0332632 -6.6304388 2.9841611 0
3.0715933 -6.6127682 2.9841602 0
3.1098182 -6.5948725 2.984159 0
3.1479397 -6.5767574 2.984158 0
3.1859572 -6.5584226 2.9841568 0
3.2238612 -6.5398679 2.9841557 0
3.2616665 -6.5210934 2.9841545 0
3.2993581 -6.5021038 2.9841533 0
3.3369374 -6.4828949 2.9841521 0
3.3744068 -6.4634662 2.9841509 0
3.4117653 -6.4438229 2.9841497 0
3.449003 -6.4239645 2.9841485 0
3.4861305 -6.4038911 2.9841473 0
3.5231385 -6.3835983 2.9841461 0
3.5600319 -6.3630953 2.9841449 0
3.5968044 -6.3423824 2.9841435 0
3.6334524 -6.3214545 2.9841423 0
3.6699843 -6.300312 2.9841411 0
3.7063906 -6.2789593 2.9841397 0
3.742671 -6.2573972 2.9841385 0
3.7788308 -6.2356243 2.9841371 0
3.8148611 -6.2136421 2.9841356 0
3.8507583 -6.1914544 2.9841344 0
3.8865347 -6.1690574 2.984133 0
3.922178 -6.1464496 2.9841316 0
3.9576881 -6.123642 2.9841301 0
3.9930677 -6.1006246 2.9841287 0
4.0283132 -6.0774069 2.9841273 0
4.0634193 -6.0539837 2.9841259 0
4.0983939 -6.0303607 2.9841244 0
4.1332326 -6.0065331 2.984123 0
4.1679311 -5.9825048 2.9841216 0
4.2024894 -5.9582763 2.9841201 0
4.2369032 -5.9338479 2.9841187 0
4.2711782 -5.9092188 2.984117 0
4.3053117 -5.8843899 2.9841156 0
4.3392968 -5.8593702 2.9841139 0
4.3731408 -5.8341503 2.9841125 0
4.406836 -5.8087354 2.9841108 0
4.4403834 -5.7831297 2.9841094 0
4.473783 -5.7573242 2.9841077 0
4.5070338 -5.7313232 2.9841063 0
4.5401297 -5.7051368 2.9841046 0
2.7035904 -6.2908735 2.9841404 0
2.7399611 -6.2751169 2.9841394 0
2.776238 -6.2591453 2.9841385 0
2.8124185 -6.2429733 2.9841375 0
2.8485098 -6.2265863 2.9841366 0
2.8845069 -6.2099895 2.9841354 0
2.9204006 -6.1931829 2.9841344 0
2.9562013 -6.1761761 2.9841335 0
2.9919045 -6.1589546 2.9841323 0
3.0275002 -6.1415329 2.9841313 0
3.0630007 -6.1239057 2.9841301 0
3.0983987 -6.1060638 2.9841292 0
3.1336904 -6.088027 2.984128 0
3.1688771 -6.0697846 2.9841268 0
3.203959 -6.0513372 2.9841259 0
3.2389283 -6.03269 2.9841247 0
3.2737942 -6.0138373 2.9841235 0
3.3085475 -5.9947796 2.9841223 0
3.3431935 -5.9755268 2.9841211 0
3.3777285 -5.9560738 2.9841199 0
3.4121437 -5.9364204 2.9841187 0
3.4464493 -5.9165668 2.9841175 0
3.4806385 -5.896513 2.9841163 0
3.5147085 -5.8762641 2.9841151 0
3.5486672 -5.8558149 2.9841139 0
3.5825038 -5.8351755 2.9841125 0
3.6162159 -5.8143406 2.9841113 0
3.649811 -5.7933102 2.9841101 0
3.6832838 -5.7720795 2.9841087 0
3.7166324 -5.7506638 2.9841075 0
3.7498562 -5.7290473 2.9841061 0
3.7829542 -5.7072458 2.9841046 0
3.8159242 -5.6852484 2.9841034 0
3.8487697 -5.6630611 2.984102 0
3.8814845 -5.6406832 2.9841006 0
3.9140675 -5.6181245 2.9840994 0
3.9465225 -5.5953708 2.984098 0
3.978838 -5.5724263 2.9840965 0
4.0110278 -5.5492964 2.9840951 0
4.0430837 -5.5259857 2.9840937 0
4.0750003 -5.5024848 2.9840922 0
4.1067834 -5.4788036 2.9840908 0
4.1384244 -5.4549413 2.9840894 0
4.1699271 -5.4308887 2.9840879 0
4.2012954 -5.4066553 2.9840863 0
4.2325211 -5.3822412 2.9840848 0
4.2636013 -5.3576512 2.9840834 0
2.5454726 -5.9229584 2.984118 0
2.5797181 -5.9081197 2.984117 0
2.6138735 -5.8930855 2.9841161 0
2.6479385 -5.8778558 2.9841151 0
2.6819179 -5.862431 2.9841142 0
2.7158084 -5.846806 2.9841132 0
2.7496047 -5.830986 2.9841123 0
2.7833121 -5.8149652 2.9841113 0
2.8169265 -5.7987595 2.9841104 0
2.850441 -5.7823582 2.9841094 0
2.8838649 -5.7657514 2.9841082 0
2.9171913 -5.7489643 2.9841073 0
2.9504178 -5.731977 2.9841063 0
2.9835501 -5.7148042 2.9841051 0
3.0165811 -5.6974311 2.9841042 0
3.0495045 -5.6798725 2.984103 0
3.0823317 -5.6621237 2.984102 0
3.1150527 -5.6441889 2.9841008 0
3.1476736 -5.6260591 2.9840999 0
3.1801858 -5.607739 2.9840987 0
3.2125893 -5.5892377 2.9840975 0
3.2448878 -5.5705466 2.9840963 0
3.2770793 -5.5516644 2.9840953 0
3.3091581 -5.5326023 2.9840941 0
3.3411283 -5.5133538 2.984093 0
3.3729875 -5.4939156 2.9840918 0
3.4047258 -5.4743013 2.9840906 0
3.4363577 -5.4544969 2.9840894 0
3.4678741 -5.4345112 2.9840879 0
3.4992692 -5.4143405 2.9840868 0
3.5305533 -5.3939939 2.9840856 0
3.561713 -5.3734612 2.9840844 0
3.5927567 -5.3527584 2.9840829 0
3.6236808 -5.3318696 2.9840817 0
3.654484 -5.3107953 2.9840806 0
3.6851592 -5.2895551 2.9840791 0
3.7157171 -5.2681341 2.9840779 0
3.7461455 -5.2465329 2.9840765 0
3.7764506 -5.2247553 2.9840753 0
3.8066313 -5.2028069 2.9840739 0
3.8366826 -5.1806831 2.9840724 0
3.8666058 -5.1583834 2.9840713 0
3.8963969 -5.1359177 2.9840698 0
3.9260576 -5.1132712 2.9840684 0
3.9555912 -5.0904584 2.984067 0
3.9849882 -5.0674701 2.9840655 0
4.0142531 -5.0443211 2.9840641 0
2.4020326 -5.5891891 2.9840975 0
2.4343495 -5.5751901 2.9840968 0
2.4665785 -5.5610056 2.9840958 0
2.4987223 -5.5466304 2.9840949 0
2.5307903 -5.5320749 2.9840939 0
2.5627677 -5.5173287 2.9840932 0
2.5946624 -5.5024018 2.9840922 0
2.6264689 -5.4872894 2.9840913 0
2.6581903 -5.4719915 2.9840903 0
2.6898148 -5.4565134 2.9840894 0
2.7213542 -5.4408441 2.9840884 0
2.7528045 -5.4249997 2.9840875 0
2.7841594 -5.4089742 2.9840865 0
2.8154228 -5.3927631 2.9840856 0
2.8465934 -5.3763766 2.9840846 0
2.8776591 -5.3598042 2.9840834 0
2.9086394 -5.3430562 2.9840825 0
2.9395146 -5.3261323 2.9840815 0
2.9702995 -5.3090229 2.9840803 0
3.0009794 -5.291738 2.9840794 0
3.0315568 -5.2742767 2.9840782 0
3.0620353 -5.25664 2.9840772 0
3.0924151 -5.2388229 2.984076 0
3.1226835 -5.2208347 2.9840751 0
3.1528521 -5.2026706 2.9840739 0
3.1829166 -5.1843257 2.9840727 0
3.2128665 -5.1658149 2.9840717 0
3.2427154 -5.1471286 2.9840705 0
3.2724552 -5.1282663 2.9840693 0
3.302083 -5.1092429 2.9840682 0
3.3316033 -5.0900335 2.984067 0
3.3610086 -5.0706687 2.9840658 0
3.3903019 -5.0511274 2.9840646 0
3.4194829 -5.0314155 2.9840634 0
3.4485502 -5.011528 2.9840622 0
3.4774992 -4.9914842 2.984061 0
3.5063334 -4.9712644 2.9840598 0
3.5350468 -4.9508882 2.9840584 0
3.5636466 -4.9303365 2.9840572 0
3.5921245 -4.9096236 2.984056 0
3.6204827 -4.8887496 2.9840546 0
3.6487186 -4.8677049 2.9840534 0
3.6768327 -4.8464985 2.9840522 0
3.7048223 -4.8251362 2.9840508 0
3.7326908 -4.8036079 2.9840496 0
3.7604325 -4.7819185 2.9840481 0
3.7880473 -4.7600679 2.9840467 0
2.2711883 -5.2847309 2.9840789 0
2.3017423 -5.2714987 2.9840782 0
2.3322184 -5.2580805 2.9840772 0
2.3626139 -5.2444968 2.9840765 0
2.3929315 -5.230732 2.9840755 0
2.4231706 -5.2167869 2.9840748 0
2.4533243 -5.2026753 2.9840739 0
2.4834001 -5.1883836 2.9840729 0
2.5133927 -5.1739154 2.9840722 0
2.5432951 -5.1592817 2.9840713 0
2.573117 -5.1444721 2.9840703 0
2.6028533 -5.129487 2.9840693 0
2.6325004 -5.1143355 2.9840684 0
2.6620598 -5.0990086 2.9840674 0
2.6915336 -5.0835104 2.9840665 0
2.7209086 -5.0678463 2.9840655 0
2.7501981 -5.0520115 2.9840646 0
2.7793949 -5.0360055 2.9840636 0
2.8084989 -5.0198288 2.9840627 0
2.8375101 -5.0034857 2.9840617 0
2.86642 -4.9869771 2.9840608 0
2.895241 -4.9702973 2.9840596 0
2.9239628 -4.9534564 2.9840586 0
2.9525847 -4.9364448 2.9840577 0
2.9811113 -4.9192719 2.9840565 0
3.0095365 -4.9019284 2.9840555 0
3.037858 -4.8844233 2.9840543 0
3.0660796 -4.8667574 2.9840534 0
3.0942008 -4.8489251 2.9840522 0
3.1222136 -4.8309321 2.9840512 0
3.150125 -4.8127732 2.98405 0
3.1779289 -4.7944574 2.9840488 0
3.2056267 -4.7759809 2.9840477 0
3.2332194 -4.7573433 2.9840467 0
3.2607012 -4.7385445 2.9840455 0
3.2880728 -4.7195892 2.9840443 0
3.3153386 -4.7004733 2.9840431 0
3.3424871 -4.6812057 2.9840419 0
3.3695292 -4.661777 2.9840407 0
3.3964579 -4.6421919 2.9840395 0
3.4232683 -4.6224508 2.9840384 0
3.4499686 -4.6025534 2.9840372 0
3.4765508 -4.5825095 2.984036 0
3.5030143 -4.5623045 2.9840348 0
3.529367 -4.5419478 2.9840333 0
3.5555985 -4.52144 2.9840322 0
3.581707 -4.5007811 2.984031 0
2.151237 -5.0056195 2.9840617 0
2.1801751 -4.9930806 2.984061 0
2.2090397 -4.9803758 2.9840603 0
2.2378287 -4.9675093 2.9840596 0
2.2665472 -4.9544673 2.9840586 0
2.2951896 -4.9412642 2.9840579 0
2.3237541 -4.9278903 2.9840569 0
2.3522379 -4.9143548 2.9840562 0
2.3806486 -4.9006538 2.9840553 0
2.4089713 -4.8867917 2.9840546 0
2.4372184 -4.8727632 2.9840536 0
2.465385 -4.8585739 2.9840529 0
2.4934635 -4.844223 2.9840519 0
2.5214641 -4.8297067 2.984051 0
2.5493791 -4.8150239 2.9840503 0
2.5772038 -4.80019 2.9840493 0
2.604948 -4.7851901 2.9840484 0
2.6326005 -4.7700291 2.9840474 0
2.6601689 -4.7547116 2.9840465 0
2.6876469 -4.7392282 2.9840455 0
2.7150321 -4.7235932 2.9840446 0
2.7423284 -4.7077928 2.9840436 0
2.7695341 -4.6918402 2.9840426 0
2.7966447 -4.6757269 2.9840417 0
2.8236625 -4.6594577 2.9840407 0
2.85059 -4.6430368 2.9840395 0
2.8774114 -4.6264548 2.9840386 0
2.904146 -4.6097164 2.9840376 0
2.9307792 -4.5928268 2.9840364 0
2.957315 -4.5757856 2.9840355 0
2.9837518 -4.5585885 2.9840345 0
3.010087 -4.5412397 2.9840333 0
3.0363224 -4.5237398 2.9840324 0
3.0624578 -4.5060883 2.9840312 0
3.0884881 -4.4882808 2.9840302 0
3.1144156 -4.4703217 2.9840291 0
3.1402397 -4.4522161 2.9840279 0
3.1659551 -4.4339695 2.9840269 0
3.1915679 -4.415566 2.9840257 0
3.2170744 -4.397016 2.9840245 0
3.24247 -4.3783197 2.9840233 0
3.2677605 -4.3594723 2.9840224 0
3.2929387 -4.340488 2.9840212 0
3.318007 -4.321352 2.98402 0
3.342963 -4.3020649 2.9840188 0
3.3678105 -4.2826462 2.9840176 0
3.3925419 -4.2630758 2.9840164 0
2.0407586 -4.748559 2.984046 0
2.0682147 -4.7366595 2.9840453 0
2.0955973 -4.7246137 2.9840446 0
2.1229069 -4.7124019 2.9840438 0
2.1501482 -4.7000289 2.9840431 0
2.1773186 -4.6875043 2.9840424 0
2.2044158 -4.6748238 2.9840417 0
2.2314396 -4.6619773 2.9840407 0
2.2583878 -4.648984 2.98404 0
2.2852581 -4.6358347 2.9840393 0
2.3120549 -4.6225238 2.9840384 0
2.3387737 -4.6090622 2.9840376 0
2.3654118 -4.595449 2.9840367 0
2.3919742 -4.5816793 2.984036 0
2.4184587 -4.5677533 2.984035 0
2.4448528 -4.5536814 2.9840341 0
2.4711735 -4.5394478 2.9840333 0
2.4974065 -4.525063 2.9840324 0
2.5235589 -4.5105319 2.9840314 0
2.5496233 -4.4958444 2.9840307 0
2.5756023 -4.4810152 2.9840298 0
2.6014984 -4.4660296 2.9840288 0
2.6273065 -4.4508929 2.9840279 0
2.6530242 -4.435605 2.9840269 0
2.6786563 -4.4201756 2.984026 0
2.704196 -4.4045944 2.984025 0
2.7296441 -4.3888669 2.984024 0
2.755003 -4.3729877 2.9840231 0
2.7802727 -4.3569674 2.9840221 0
2.8054447 -4.3408003 2.9840212 0
2.8305242 -4.324482 2.9840202 0
2.8555057 -4.3080268 2.984019 0
2.8803947 -4.2914252 2.9840181 0
2.9051871 -4.2746773 2.9840171 0
2.9298832 -4.2577877 2.9840162 0
2.954478 -4.2407565 2.984015 0
2.9789751 -4.2235785 2.984014 0
3.0033708 -4.206264 2.9840128 0
3.0276678 -4.188808 2.9840119 0
3.051862 -4.1712103 2.9840107 0
3.0759575 -4.1534762 2.9840097 0
3.0999467 -4.1356001 2.9840086 0
3.1238322 -4.1175828 2.9840076 0
3.1476116 -4.0994282 2.9840064 0
3.1712883 -4.0811372 2.9840052 0
3.1948588 -4.0627093 2.984004 0
3.2183208 -4.0441499 2.9840031 0
