# .PCD v0.7 - Point Cloud Data file format
VERSION 0.7
FIELDS x y z intensity
SIZE 4 4 4 4
TYPE F F F F
COUNT 1 1 1 1
WIDTH 1457
HEIGHT 1
VIEWPOINT 0 0 0 1 0 0 0
POINTS 1457
DATA ascii
23.099993 -19.734694 -4.654356 0
23.099993 -19.505663 -4.6316447 0
23.099993 -19.27887 -4.6093054 0
23.099998 -19.054256 -4.5873332 0
23.099998 -18.831755 -4.5657196 0
23.099998 -18.611336 -4.5444584 0
23.099995 -18.392925 -4.5235405 0
23.099998 -18.176538 -4.5029678 0
23.099995 -17.962112 -4.482728 0
23.099998 -17.749588 -4.4628181 0
23.099998 -17.538912 -4.4432273 0
23.099993 -21.158108 -4.0792093 0
23.099993 -20.914742 -4.0578723 0
23.099993 -20.673876 -4.0368862 0
23.099997 -20.435509 -4.0162516 0
23.099997 -20.199551 -3.995959 0
23.099997 -19.965975 -3.9760029 0
23.099993 -19.734695 -3.9563742 0
23.099997 -19.505661 -3.9370673 0
23.099993 -19.278868 -3.9180772 0
23.099995 -19.05426 -3.8994019 0
23.099995 -18.831755 -3.8810287 0
23.099998 -18.61133 -3.8629558 0
23.099998 -18.392929 -3.8451769 0
23.099995 -18.176538 -3.8276882 0
23.099998 -17.962116 -3.8104846 0
23.099998 -17.749588 -3.7935591 0
23.099995 -17.538916 -3.776907 0
23.099993 -21.15811 -3.3637655 0
23.099997 -20.91474 -3.3461695 0
23.099997 -20.673872 -3.3288648 0
23.099993 -20.435503 -3.3118503 0
23.099997 -20.199553 -3.2951162 0
23.099993 -19.965971 -3.2786605 0
23.099993 -19.734695 -3.2624736 0
23.099993 -19.505661 -3.2465537 0
23.099997 -19.278868 -3.2308953 0
23.099998 -19.054256 -3.2154934 0
23.099995 -18.831755 -3.2003436 0
23.099995 -18.611334 -3.1854413 0
23.099998 -18.392933 -3.1707795 0
23.099998 -18.176537 -3.1563578 0
23.099998 -17.962116 -3.1421716 0
23.099995 -17.74959 -3.1282148 0
23.099998 -17.538918 -3.1144834 0
23.099997 -21.158108 -2.6517742 0
23.099997 -20.914738 -2.6379027 0
23.099997 -20.673876 -2.6242621 0
23.099993 -20.435507 -2.6108477 0
23.099993 -20.199547 -2.597656 0
23.099997 -19.965977 -2.5846832 0
23.099997 -19.734694 -2.5719233 0
23.099993 -19.505661 -2.5593712 0
23.099997 -19.27887 -2.5470273 0
23.099998 -19.054256 -2.5348861 0
23.099998 -18.831758 -2.5229435 0
23.099995 -18.611332 -2.5111949 0
23.099995 -18.392933 -2.4996369 0
23.099995 -18.176537 -2.4882674 0
23.099995 -17.962118 -2.4770844 0
23.099998 -17.749594 -2.4660816 0
23.099995 -17.538914 -2.455256 0
23.229485 -21.276716 -1.9533823 0
23.205061 -21.009867 -1.9411213 0
23.181095 -20.74646 -1.9290879 0
23.157572 -20.486437 -1.9172801 0
23.134485 -20.22971 -1.9056915 0
23.111826 -19.976202 -1.8943173 0
23.099997 -19.734695 -1.8840004 0
23.099997 -19.505663 -1.8748062 0
23.099993 -19.278868 -1.8657635 0
23.099998 -19.05426 -1.8568704 0
23.099995 -18.831757 -1.8481212 0
23.099998 -18.611336 -1.8395153 0
23.099995 -18.392931 -1.8310491 0
23.099995 -18.176538 -1.8227205 0
23.099995 -17.962116 -1.8145287 0
23.099998 -17.74959 -1.806469 0
23.099995 -17.538916 -1.7985387 0
34.494766 -34.251804 -1.9168028 0
23.099993 -21.158108 -1.2351906 0
23.099993 -20.914734 -1.2287294 0
23.099993 -20.673874 -1.2223755 0
23.099997 -20.435503 -1.2161273 0
23.099993 -20.199551 -1.2099826 0
23.099997 -19.965973 -1.2039399 0
23.099997 -19.734697 -1.197997 0
23.099993 -19.505665 -1.1921499 0
23.099993 -19.278873 -1.1864003 0
23.099995 -19.054258 -1.1807449 0
23.099995 -18.831758 -1.1751819 0
23.099998 -18.611336 -1.1697093 0
23.099998 -18.392929 -1.1643254 0
23.099998 -18.17654 -1.1590297 0
23.099998 -17.962112 -1.15382 0
23.099995 -17.749588 -1.1486959 0
23.099995 -17.538914 -1.1436532 0
33.806023 -34.35022 -0.81410915 0
33.894741 -34.045952 -0.81151062 0
34.083038 -33.842976 -0.81133878 0
34.351364 -33.718742 -0.81308943 0
34.813984 -33.781368 -0.81942111 0
23.099997 -21.158108 -0.52914339 0
23.099997 -20.914734 -0.52637541 0
23.099997 -20.673882 -0.52365363 0
23.099997 -20.435505 -0.5209769 0
23.099993 -20.199551 -0.51834464 0
23.099997 -19.965973 -0.51575637 0
23.099997 -19.734695 -0.5132097 0
23.099993 -19.505659 -0.51070505 0
23.099993 -19.278868 -0.50824219 0
23.099995 -19.05426 -0.50581932 0
23.099995 -18.831755 -0.50343609 0
23.099998 -18.611336 -0.5010919 0
23.099995 -18.392935 -0.49878588 0
23.099995 -18.176537 -0.496517 0
23.099998 -17.962116 -0.4942854 0
23.099998 -17.749586 -0.49208993 0
23.099998 -17.538916 -0.48993009 0
33.284698 -34.608982 0.27034405 0
33.282963 -34.210636 0.26872537 0
33.371307 -33.908504 0.2678574 0
33.513973 -33.66349 0.26744211 0
33.700077 -33.462719 0.26738477 0
33.929195 -33.304356 0.26767644 0
34.211117 -33.196388 0.26838771 0
34.578033 -33.167942 0.26976332 0
35.227333 -33.403309 0.27332324 0
23.099997 -21.158108 0.17636605 0
23.099993 -20.914742 0.17544374 0
23.099997 -20.673874 0.17453662 0
23.099997 -20.435499 0.17364441 0
23.099993 -20.199547 0.17276689 0
23.099993 -19.965975 0.17190407 0
23.099997 -19.734699 0.1710557 0
23.099997 -19.505665 0.17022082 0
23.099993 -19.278868 0.1693999 0
23.099998 -19.054258 0.16859221 0
23.099995 -18.831757 0.16779803 0
23.099998 -18.611334 0.1670166 0
23.099998 -18.392931 0.16624768 0
23.099998 -18.17654 0.16549154 0
23.099995 -17.962112 0.16474791 0
23.099995 -17.749594 0.16401583 0
23.099998 -17.538918 0.16329627 0
32.791714 -34.892059 1.348276 0
32.72673 -34.423435 1.3374296 0
32.769783 -34.073589 1.331148 0
32.858601 -33.774433 1.3268322 0
32.974945 -33.505764 1.323716 0
33.141582 -33.289433 1.3226875 0
33.325531 -33.090813 1.3224007 0
33.54187 -32.924152 1.3234388 0
33.79459 -32.792206 1.3259362 0
34.073418 -32.683895 1.329469 0
34.417633 -32.63554 1.3355434 0
34.849552 -32.665997 1.3449808 0
35.707809 -33.086205 1.3707275 0
23.099997 -21.158106 0.88205534 0
23.099993 -20.914738 0.87744117 0
23.099993 -20.673874 0.87290359 0
23.099993 -20.435503 0.86844206 0
23.099997 -20.199545 0.86405385 0
23.099993 -19.965973 0.85973883 0
23.099993 -19.734694 0.85549444 0
23.099993 -19.505669 0.85131961 0
23.099997 -19.278873 0.84721392 0
23.099998 -19.054264 0.84317529 0
23.099995 -18.831758 0.83920264 0
23.099998 -18.611338 0.83529449 0
23.099995 -18.392929 0.83144993 0
23.099998 -18.176542 0.82766837 0
23.099998 -17.962116 0.82394832 0
23.099995 -17.749588 0.82028848 0
23.099995 -17.538919 0.81668776 0
32.624931 -49.005703 2.9856625 0
32.906513 -48.816784 2.985651 0
33.186985 -48.626266 2.9856393 0
33.46632 -48.434147 2.9856274 0
33.744583 -48.240429 2.9856157 0
34.021709 -48.045086 2.9856038 0
34.297726 -47.848152 2.9855917 0
34.572559 -47.649651 2.9855795 0
34.846279 -47.449558 2.9855673 0
35.118828 -47.247883 2.9855549 0
35.390205 -47.044647 2.9855425 0
35.660431 -46.839836 2.9855299 0
35.929436 -46.633499 2.9855173 0
36.197247 -46.425602 2.9855046 0
36.463867 -46.216175 2.9854918 0
36.729298 -46.005177 2.9854789 0
36.99345 -45.792706 2.985466 0
37.256409 -45.578705 2.9854529 0
37.518127 -45.363171 2.9854398 0
37.778584 -45.146145 2.9854264 0
38.037773 -44.927639 2.9854131 0
38.295734 -44.7076 2.9853995 0
38.552395 -44.486099 2.9853859 0
38.807793 -44.263138 2.9853723 0
39.061897 -44.038704 2.9853587 0
39.31469 -43.812805 2.9853449 0
39.566193 -43.585445 2.9853308 0
32.353802 -35.230556 2.425796 0
32.23016 -34.69273 2.4015052 0
32.215488 -34.278923 2.3856635 0
32.265697 -33.938507 2.3748667 0
32.355068 -33.642372 2.3671441 0
32.469223 -33.374203 2.3613942 0
32.611824 -33.136806 2.3578467 0
32.776909 -32.923138 2.356035 0
32.958771 -32.726631 2.3555186 0
33.172436 -32.561531 2.357347 0
33.393879 -32.403385 2.3597827 0
33.661972 -32.289238 2.3655484 0
33.93774 -32.180485 2.3718624 0
34.278027 -32.13028 2.3826725 0
34.659958 -32.11528 2.3963237 0
23.099997 -21.15811 1.5886402 0
23.099993 -20.914736 1.5803297 0
23.099997 -20.673876 1.5721571 0
23.099993 -20.435501 1.5641212 0
23.099997 -20.199543 1.5562179 0
23.099993 -19.965969 1.5484464 0
23.099997 -19.734694 1.5408021 0
23.099993 -19.505663 1.5332826 0
23.099997 -19.278868 1.5258878 0
23.099995 -19.054262 1.5186144 0
23.099998 -18.831753 1.5114588 0
23.099998 -18.611334 1.5044205 0
23.099995 -18.392931 1.4974965 0
23.099998 -18.176542 1.4906857 0
23.099995 -17.962114 1.4839855 0
23.099995 -17.749588 1.4773941 0
23.099995 -17.538914 1.4709088 0
22.558453 -33.884922 2.9847374 0
22.753189 -33.754345 2.9847295 0
22.947142 -33.622639 2.9847214 0
23.140326 -33.489841 2.9847133 0
23.332758 -33.355934 2.9847052 0
23.524408 -33.220917 2.9846969 0
23.715286 -33.08477 2.9846885 0
23.905359 -32.947563 2.9846802 0
24.094637 -32.809246 2.9846716 0
24.283133 -32.669842 2.9846632 0
24.470814 -32.529358 2.9846547 0
24.657688 -32.387775 2.9846458 0
24.843729 -32.245155 2.9846373 0
25.028929 -32.101444 2.9846284 0
25.213333 -31.956676 2.9846196 0
25.396898 -31.810812 2.9846106 0
25.579596 -31.663937 2.9846017 0
25.76144 -31.516003 2.9845927 0
25.942436 -31.367018 2.9845834 0
26.122593 -31.216993 2.9845743 0
26.301842 -31.065945 2.984565 0
26.480259 -30.913845 2.9845557 0
26.657768 -30.760735 2.9845464 0
26.8344 -30.606594 2.9845369 0
27.010132 -30.451443 2.9845273 0
27.184996 -30.29528 2.9845178 0
27.358931 -30.138126 2.9845083 0
27.531948 -29.979963 2.9844985 0
27.704058 -29.820805 2.984489 0
27.87524 -29.660677 2.9844792 0
28.045532 -29.499535 2.9844692 0
28.214859 -29.337431 2.9844594 0
28.383257 -29.174339 2.9844494 0
28.550699 -29.010302 2.9844394 0
28.717203 -28.84531 2.9844291 0
28.882759 -28.679319 2.9844191 0
29.047369 -28.512415 2.9844089 0
29.210981 -28.344555 2.9843986 0
29.373629 -28.175766 2.9843884 0
29.535337 -28.006014 2.9843779 0
29.696032 -27.835365 2.9843674 0
29.855728 -27.663769 2.9843569 0
23.099997 -21.15811 2.2968414 0
23.099997 -20.91474 2.2848263 0
23.099997 -20.673872 2.2730105 0
23.099993 -20.435499 2.2613919 0
23.099993 -20.199545 2.2499661 0
23.099997 -19.965969 2.2387295 0
23.099997 -19.734695 2.2276778 0
23.099993 -19.505663 2.2168067 0
23.099997 -19.27887 2.2061145 0
23.099998 -19.054256 2.1955986 0
23.099998 -18.831758 2.1852539 0
23.099998 -18.61133 2.1750774 0
23.099995 -18.392931 2.165067 0
23.099995 -18.176538 2.1552196 0
23.099998 -17.962114 2.1455328 0
23.099998 -17.749586 2.1360025 0
23.099998 -17.538918 2.1266263 0
17.225821 -25.874792 2.9842474 0
17.374531 -25.775099 2.9842415 0
17.522648 -25.674553 2.9842353 0
17.670179 -25.57317 2.9842291 0
17.817127 -25.470924 2.9842227 0
17.963488 -25.367844 2.9842165 0
18.109268 -25.263903 2.98421 0
18.25441 -25.159142 2.9842036 0
18.398964 -25.053541 2.9841971 0
18.542908 -24.947105 2.9841907 0
18.686232 -24.83984 2.9841843 0
18.828953 -24.731745 2.9841776 0
18.971033 -24.622858 2.9841709 0
19.112469 -24.513132 2.9841642 0
19.253288 -24.402599 2.9841573 0
19.393473 -24.291243 2.9841506 0
19.532997 -24.179104 2.9841437 0
19.671873 -24.066154 2.9841368 0
19.810108 -23.952398 2.9841299 0
19.94768 -23.837862 2.9841228 0
20.084581 -23.722536 2.9841158 0
20.220833 -23.606407 2.9841087 0
20.356398 -23.489498 2.9841015 0
20.491299 -23.371822 2.9840944 0
20.625511 -23.253361 2.984087 0
20.759039 -23.134138 2.9840798 0
20.891876 -23.014137 2.9840724 0
21.024019 -22.893375 2.9840651 0
21.15547 -22.771862 2.9840577 0
21.286198 -22.649597 2.9840503 0
21.416243 -22.52656 2.9840426 0
21.545572 -22.40279 2.984035 0
21.674181 -22.278273 2.9840274 0
21.802067 -22.153019 2.9840198 0
21.929222 -22.027048 2.9840121 0
22.05567 -21.900318 2.9840043 0
22.181374 -21.772873 2.9839966 0
22.306345 -21.644709 2.9839888 0
22.430557 -21.515837 2.9839809 0
22.554056 -21.386232 2.9839728 0
22.676792 -21.25593 2.9839649 0
22.798763 -21.124918 2.9839568 0
22.919981 -20.993219 2.9839489 0
23.040436 -20.860807 2.9839408 0
23.160152 -20.727707 2.9839325 0
23.279078 -20.593922 2.9839244 0
23.33576 -20.40571 2.9760773 0
23.295853 -20.13526 2.9561505 0
23.256731 -19.868597 2.9366169 0
23.21838 -19.605625 2.9174664 0
23.180786 -19.346294 2.8986948 0
23.143934 -19.0905 2.88029 0
23.107798 -18.838118 2.8622441 0
23.099998 -18.611332 2.8479526 0
23.099995 -18.392931 2.8348453 0
23.099995 -18.176537 2.8219523 0
23.099998 -17.962118 2.809269 0
23.099998 -17.749588 2.7967904 0
23.099995 -17.538916 2.784513 0
13.920797 -20.910337 2.9839437 0
14.040976 -20.829781 2.9839389 0
14.160689 -20.748535 2.9839339 0
14.279915 -20.666607 2.9839289 0
14.398675 -20.583994 2.9839239 0
14.51696 -20.500689 2.9839187 0
14.634772 -20.416698 2.9839137 0
14.752078 -20.33205 2.9839084 0
14.868905 -20.246716 2.9839032 0
14.985238 -20.160709 2.9838979 0
15.101076 -20.074036 2.9838927 0
15.216413 -19.986691 2.9838872 0
15.33123 -19.898699 2.983882 0
15.445546 -19.810036 2.9838765 0
15.559352 -19.72072 2.983871 0
15.67265 -19.630733 2.9838655 0
15.785409 -19.540119 2.98386 0
15.897655 -19.448849 2.9838543 0
16.009371 -19.35693 2.9838488 0
16.120554 -19.264372 2.9838431 0
16.231194 -19.171183 2.9838374 0
16.341316 -19.077341 2.9838316 0
16.450886 -18.982878 2.9838259 0
16.55991 -18.887779 2.98382 0
16.668381 -18.792057 2.9838142 0
16.776297 -18.695715 2.9838083 0
16.883657 -18.598747 2.9838023 0
16.990458 -18.501169 2.9837964 0
17.096691 -18.402971 2.9837904 0
17.202351 -18.304173 2.9837844 0
17.307457 -18.204752 2.9837782 0
17.411978 -18.104738 2.983772 0
17.515923 -18.004124 2.9837661 0
17.619286 -17.902906 2.9837599 0
17.722054 -17.801105 2.9837537 0
17.824247 -17.698698 2.9837472 0
17.92585 -17.59572 2.983741 0
18.026848 -17.492155 2.9837346 0
18.127247 -17.388004 2.9837284 0
18.227053 -17.283278 2.983722 0
18.326248 -17.177984 2.9837155 0
18.424841 -17.072117 2.9837089 0
18.522806 -16.965685 2.9837024 0
18.620167 -16.858692 2.983696 0
18.716919 -16.751135 2.9836893 0
18.813044 -16.643024 2.9836826 0
18.908535 -16.534363 2.9836762 0
19.003397 -16.425163 2.9836693 0
19.097631 -16.315407 2.9836626 0
19.191248 -16.205109 2.9836559 0
19.284212 -16.094265 2.9836493 0
19.376526 -15.982918 2.9836423 0
19.468222 -15.871023 2.9836354 0
19.55925 -15.758601 2.9836285 0
19.649645 -15.645647 2.9836216 0
19.73938 -15.532186 2.9836147 0
19.828453 -15.418216 2.9836078 0
19.916872 -15.303728 2.9836009 0
20.004637 -15.188724 2.9835937 0
11.669765 -17.529078 2.9837368 0
11.770519 -17.461552 2.9837327 0
11.87087 -17.393448 2.9837286 0
11.97082 -17.32477 2.9837244 0
12.070386 -17.255522 2.9837203 0
12.169544 -17.185694 2.983716 0
12.268309 -17.115294 2.9837117 0
12.366653 -17.044336 2.9837072 0
12.464586 -16.972803 2.9837034 0
12.562116 -16.900713 2.9836986 0
12.659223 -16.828062 2.9836941 0
12.755918 -16.754843 2.98369 0
12.852172 -16.681078 2.983685 0
12.948009 -16.606762 2.9836805 0
13.043422 -16.531885 2.983676 0
13.138401 -16.456465 2.9836714 0
13.232926 -16.380503 2.9836667 0
13.327028 -16.303999 2.9836619 0
13.420683 -16.226948 2.9836574 0
13.513896 -16.149361 2.9836526 0
13.606645 -16.071239 2.9836478 0
13.698965 -15.992585 2.9836428 0
13.790816 -15.91339 2.983638 0
13.88222 -15.833683 2.9836333 0
13.973156 -15.753449 2.9836283 0
14.063623 -15.672677 2.9836233 0
14.153635 -15.591403 2.9836185 0
14.243164 -15.509597 2.9836135 0
14.332232 -15.427292 2.983608 0
14.420809 -15.344469 2.9836032 0
14.508924 -15.261125 2.9835982 0
14.596551 -15.177297 2.983593 0
14.683694 -15.092951 2.983588 0
14.770342 -15.008107 2.9835827 0
14.856502 -14.922775 2.9835775 0
14.942178 -14.83693 2.9835722 0
15.027356 -14.750607 2.983567 0
15.112033 -14.663791 2.9835615 0
15.196201 -14.576496 2.9835563 0
15.279877 -14.488698 2.983551 0
15.363035 -14.400432 2.9835455 0
15.44569 -14.311687 2.9835401 0
15.527823 -14.222483 2.9835346 0
15.609449 -14.13279 2.9835291 0
15.690561 -14.042624 2.9835236 0
15.771144 -13.951999 2.9835181 0
15.851204 -13.86091 2.9835126 0
15.930733 -13.769372 2.9835069 0
16.009737 -13.67737 2.9835012 0
16.088223 -13.584904 2.9834957 0
16.166161 -13.491999 2.98349 0
16.243559 -13.398649 2.9834843 0
16.320427 -13.304855 2.9834785 0
16.396748 -13.210612 2.9834728 0
16.47253 -13.115934 2.9834669 0
16.547762 -13.020817 2.9834611 0
16.622442 -12.925285 2.9834552 0
16.696573 -12.829313 2.9834495 0
16.770155 -12.732907 2.9834435 0
10.036457 -15.075694 2.9835868 0
10.123104 -15.017618 2.9835832 0
10.209416 -14.959048 2.9835796 0
10.295382 -14.899991 2.9835761 0
10.381011 -14.84043 2.9835725 0
10.466295 -14.780381 2.9835687 0
10.551237 -14.719834 2.9835651 0
10.635817 -14.658814 2.9835613 0
10.720049 -14.597296 2.9835575 0
10.803931 -14.535294 2.9835539 0
10.887449 -14.472818 2.9835501 0
10.970612 -14.409854 2.983546 0
11.0534 -14.346416 2.9835422 0
11.135824 -14.282501 2.9835384 0
11.217881 -14.218111 2.9835343 0
11.299572 -14.153243 2.9835305 0
11.380875 -14.087921 2.9835265 0
11.461802 -14.02212 2.9835224 0
11.542354 -13.95586 2.9835184 0
11.622524 -13.889132 2.9835143 0
11.702299 -13.821955 2.9835103 0
11.781698 -13.754309 2.983506 0
11.860701 -13.686213 2.9835019 0
11.939312 -13.617653 2.9834976 0
12.017519 -13.548644 2.9834933 0
12.095332 -13.479186 2.9834893 0
12.172747 -13.409294 2.983485 0
12.249752 -13.338938 2.9834807 0
12.326353 -13.268151 2.9834762 0
12.402538 -13.196925 2.9834719 0
12.478322 -13.125256 2.9834676 0
12.553689 -13.053151 2.983463 0
12.628638 -12.980617 2.9834588 0
12.703168 -12.907648 2.9834542 0
12.777268 -12.834265 2.9834497 0
12.85096 -12.760441 2.9834452 0
12.924215 -12.686198 2.9834406 0
12.997044 -12.611535 2.9834361 0
13.069436 -12.536462 2.9834316 0
13.141401 -12.460958 2.9834268 0
13.212928 -12.385046 2.9834223 0
13.284019 -12.308722 2.9834175 0
13.354662 -12.231998 2.983413 0
13.424868 -12.154865 2.9834082 0
13.494631 -12.077326 2.9834034 0
13.563941 -11.999392 2.9833987 0
13.632798 -11.921052 2.9833939 0
13.701204 -11.842326 2.9833891 0
13.769152 -11.7632 2.9833841 0
13.836653 -11.683679 2.9833794 0
13.903689 -11.603786 2.9833744 0
13.970261 -11.523502 2.9833696 0
14.036376 -11.442834 2.9833646 0
14.102019 -11.361789 2.9833596 0
14.167204 -11.280358 2.9833546 0
14.231907 -11.198562 2.9833496 0
14.296134 -11.116398 2.9833446 0
14.359896 -11.033859 2.9833395 0
14.423185 -10.950949 2.9833345 0
8.7961636 -13.212662 2.9834728 0
8.8721094 -13.161763 2.9834697 0
8.9477539 -13.11044 2.9834666 0
9.0230951 -13.058678 2.9834635 0
9.0981445 -13.00648 2.9834602 0
9.1728935 -12.953854 2.9834571 0
9.2473364 -12.900792 2.9834538 0
9.3214674 -12.84731 2.9834504 0
9.3952932 -12.793399 2.9834473 0
9.4688063 -12.739063 2.983444 0
9.5420074 -12.684302 2.9834406 0
9.6148977 -12.629122 2.9834371 0
9.6874514 -12.573531 2.9834337 0
9.7596912 -12.517515 2.9834304 0
9.8316116 -12.46108 2.9834268 0
9.9032097 -12.404234 2.9834235 0
9.9744682 -12.346983 2.9834199 0
10.045395 -12.289322 2.9834163 0
10.115996 -12.231251 2.9834127 0
10.186257 -12.17277 2.9834092 0
10.256177 -12.113897 2.9834056 0
10.325767 -12.054605 2.983402 0
10.395004 -11.994927 2.9833984 0
10.463905 -11.934839 2.9833946 0
10.532451 -11.874366 2.983391 0
10.600647 -11.813492 2.9833872 0
10.668499 -11.752233 2.9833834 0
10.735988 -11.690577 2.9833798 0
10.803129 -11.628541 2.983376 0
10.8699 -11.566119 2.9833722 0
10.936325 -11.503306 2.9833684 0
11.002378 -11.440118 2.9833643 0
11.068066 -11.376549 2.9833605 0
11.133388 -11.312598 2.9833567 0
11.198332 -11.248282 2.9833527 0
11.26292 -11.183585 2.9833488 0
11.327127 -11.118517 2.9833448 0
11.390957 -11.053087 2.9833407 0
11.45441 -10.987286 2.9833367 0
11.517483 -10.921119 2.9833326 0
11.580173 -10.85459 2.9833286 0
11.64248 -10.787702 2.9833245 0
11.704393 -10.720466 2.9833205 0
11.765926 -10.652864 2.9833162 0
11.827069 -10.584904 2.9833121 0
11.887816 -10.516599 2.9833078 0
11.948171 -10.447947 2.9833038 0
12.008124 -10.378947 2.9832995 0
12.067679 -10.309607 2.9832952 0
12.126842 -10.239914 2.9832909 0
12.185598 -10.169889 2.9832866 0
12.243945 -10.099533 2.9832823 0
12.301888 -10.028835 2.983278 0
12.359426 -9.9578047 2.9832737 0
12.416555 -9.8864374 2.9832695 0
12.473269 -9.8147526 2.9832649 0
12.529566 -9.7427406 2.9832606 0
12.585451 -9.6704073 2.9832561 0
12.640924 -9.5977411 2.9832518 0
7.8213921 -11.748458 2.9833834 0
7.8889189 -11.703204 2.9833806 0
7.956182 -11.657564 2.9833777 0
8.0231752 -11.611539 2.9833748 0
8.0899096 -11.565133 2.983372 0
8.1563749 -11.518335 2.9833691 0
8.2225714 -11.471153 2.9833663 0
8.2884865 -11.423604 2.9833634 0
8.3541336 -11.375665 2.9833605 0
8.4195013 -11.327359 2.9833574 0
8.4845886 -11.278667 2.9833546 0
8.5494022 -11.229601 2.9833515 0
8.6139193 -11.180162 2.9833486 0
8.6781549 -11.130363 2.9833455 0
8.7421045 -11.080187 2.9833424 0
8.805768 -11.029639 2.9833393 0
8.8691301 -10.978731 2.9833362 0
8.9322004 -10.927457 2.9833331 0
8.9949808 -10.875826 2.98333 0
9.057456 -10.823833 2.9833267 0
9.119626 -10.771481 2.9833236 0
9.1815052 -10.71876 2.9833202 0
9.2430744 -10.665694 2.9833171 0
9.3043404 -10.612276 2.9833138 0
9.3652925 -10.558502 2.9833105 0
9.4259338 -10.504381 2.9833071 0
9.4862652 -10.449908 2.9833038 0
9.5462799 -10.395089 2.9833004 0
9.6059761 -10.339923 2.9832971 0
9.6653547 -10.284425 2.9832938 0
9.7244167 -10.22857 2.9832904 0
9.7831526 -10.172389 2.9832869 0
9.8415642 -10.11586 2.9832835 0
9.8996477 -10.059005 2.9832799 0
9.9573994 -10.001812 2.9832764 0
10.01483 -9.9442883 2.983273 0
10.071921 -9.8864317 2.9832695 0
10.128682 -9.828248 2.9832659 0
10.185102 -9.7697468 2.9832623 0
10.241188 -9.7109089 2.9832587 0
10.296934 -9.6517591 2.9832551 0
10.352337 -9.5922813 2.9832513 0
10.407394 -9.5324965 2.9832478 0
10.462106 -9.4723835 2.9832442 0
10.516479 -9.4119587 2.9832404 0
10.570497 -9.3512268 2.9832366 0
10.624166 -9.2901812 2.983233 0
10.677472 -9.2288294 2.9832292 0
10.730433 -9.1671686 2.9832253 0
10.783043 -9.1052055 2.9832215 0
10.835289 -9.0429401 2.9832177 0
10.887171 -8.980382 2.9832139 0
10.938695 -8.9175253 2.9832101 0
10.98986 -8.8543615 2.9832063 0
11.040661 -8.790904 2.9832025 0
11.091091 -8.7271643 2.9831984 0
11.14115 -8.6631403 2.9831946 0
11.190844 -8.598814 2.9831905 0
11.240169 -8.5342102 2.9831867 0
7.0343966 -10.56631 2.9833109 0
7.0951304 -10.525611 2.9833086 0
7.1556249 -10.484571 2.9833059 0
7.2158761 -10.443179 2.9833035 0
7.275897 -10.401442 2.9833009 0
7.3356733 -10.359356 2.9832983 0
7.3952122 -10.316925 2.9832957 0
7.4544969 -10.274151 2.9832931 0
7.513536 -10.231041 2.9832904 0
7.5723276 -10.187593 2.9832878 0
7.6308675 -10.143805 2.9832852 0
7.6891599 -10.099673 2.9832823 0
7.7471848 -10.055221 2.9832797 0
7.8049607 -10.010426 2.9832771 0
7.8624763 -9.9653034 2.9832742 0
7.9197373 -9.9198399 2.9832714 0
7.9767222 -9.8740587 2.9832687 0
8.0334473 -9.8279505 2.9832659 0
8.0899076 -9.7815046 2.983263 0
8.146101 -9.7347469 2.9832602 0
8.2020159 -9.6876621 2.9832573 0
8.2576714 -9.6402502 2.9832544 0
8.3130474 -9.5925255 2.9832513 0
8.368145 -9.5444784 2.9832485 0
8.4229698 -9.4961195 2.9832456 0
8.4775133 -9.4474421 2.9832425 0
8.5317698 -9.3984528 2.9832397 0
8.5857458 -9.3491468 2.9832366 0
8.6394424 -9.2995367 2.9832335 0
8.6928434 -9.2496204 2.9832304 0
8.7459621 -9.1993904 2.9832273 0
8.798789 -9.1488581 2.9832244 0
8.8513269 -9.0980234 2.9832211 0
8.9035692 -9.0468903 2.983218 0
8.9555092 -8.9954548 2.9832149 0
9.0071611 -8.943717 2.9832118 0
9.0585108 -8.8916807 2.9832087 0
9.109561 -8.8393564 2.9832053 0
9.1603041 -8.7867346 2.9832022 0
9.2107487 -8.7338238 2.9831989 0
9.2608871 -8.6806259 2.9831955 0
9.3107166 -8.6271343 2.9831924 0
9.3602352 -8.5733652 2.9831891 0
9.4094458 -8.5193071 2.9831858 0
9.4583483 -8.4649572 2.9831824 0
9.5069313 -8.4103327 2.9831791 0
9.5551987 -8.3554354 2.9831758 0
9.6031446 -8.3002644 2.9831724 0
9.6507788 -8.2448053 2.9831691 0
9.6980972 -8.1890783 2.9831655 0
9.7450838 -8.1330767 2.9831622 0
9.7917509 -8.0768127 2.9831586 0
9.8380938 -8.0202789 2.9831553 0
9.8841085 -7.9634724 2.9831517 0
9.9297991 -7.9064016 2.9831483 0
9.9751539 -7.8490729 2.9831448 0
10.02018 -7.7914901 2.9831412 0
10.064878 -7.7336483 2.9831376 0
10.10924 -7.6755381 2.983134 0
6.3850803 -9.5909824 2.9832513 0
6.4402094 -9.5540438 2.9832489 0
6.4951215 -9.5167828 2.9832468 0
6.5498128 -9.4792194 2.9832444 0
6.6042943 -9.441329 2.9832423 0
6.6585531 -9.4031353 2.9832399 0
6.712595 -9.3646154 2.9832375 0
6.7664061 -9.3258018 2.9832351 0
6.8200006 -9.2866659 2.9832327 0
6.873364 -9.2472277 2.9832304 0
6.9265022 -9.2074814 2.983228 0
6.9794126 -9.1674232 2.9832253 0
7.0320859 -9.1270761 2.983223 0
7.0845261 -9.0864172 2.9832203 0
7.1367331 -9.0454597 2.983218 0
7.1887093 -9.0041952 2.9832153 0
7.2404366 -8.9626427 2.9832129 0
7.2919259 -8.9207869 2.9832103 0
7.3431759 -8.8786335 2.9832077 0
7.3941841 -8.8361826 2.9832051 0
7.4449372 -8.7934484 2.9832025 0
7.4954572 -8.7504158 2.9831998 0
7.5457211 -8.7070961 2.9831972 0
7.5957355 -8.6634827 2.9831946 0
7.6454964 -8.619586 2.983192 0
7.6950045 -8.5754061 2.9831891 0
7.744256 -8.5309429 2.9831865 0
7.7932515 -8.4861927 2.9831836 0
7.8419905 -8.4411583 2.983181 0
7.8904648 -8.3958502 2.9831781 0
7.9386835 -8.3502598 2.9831755 0
7.9866352 -8.3043909 2.9831727 0
8.0343218 -8.2582436 2.9831698 0
8.0817404 -8.211832 2.9831669 0
8.12889 -8.1651525 2.9831641 0
8.1757774 -8.1181841 2.9831612 0
8.2223864 -8.0709581 2.9831583 0
8.2687235 -8.0234575 2.9831555 0
8.3147869 -7.9757037 2.9831524 0
8.3605776 -7.9276714 2.9831495 0
8.406085 -7.8793802 2.9831467 0
8.4513159 -7.8308306 2.9831436 0
8.4962626 -7.782022 2.9831407 0
8.5409327 -7.7329545 2.9831376 0
8.5853233 -7.6836233 2.9831347 0
8.6294231 -7.6340485 2.9831316 0
8.6732359 -7.5842142 2.9831285 0
8.7167616 -7.5341315 2.9831254 0
8.7599936 -7.4837995 2.9831223 0
8.802947 -7.4332132 2.9831192 0
8.845602 -7.3823833 2.9831161 0
8.8879576 -7.3313088 2.9831131 0
8.9300232 -7.2799907 2.98311 0
8.9717922 -7.2284379 2.9831069 0
9.0132666 -7.1766315 2.9831035 0
9.0544395 -7.1245999 2.9831004 0
9.0953074 -7.0723295 2.9830973 0
9.1358824 -7.0198245 2.983094 0
9.1761513 -6.9670806 2.9830909 0
5.8397188 -8.7718029 2.983201 0
5.8901401 -8.738018 2.9831991 0
5.940362 -8.7039413 2.983197 0
5.9903855 -8.6695814 2.9831951 0
6.0402122 -8.6349325 2.9831929 0
6.0898361 -8.5999956 2.9831908 0
6.1392636 -8.5647717 2.9831886 0
6.1884799 -8.5292683 2.9831865 0
6.2374935 -8.4934826 2.9831841 0
6.2863021 -8.4574127 2.9831824 0
6.3349018 -8.4210606 2.9831798 0
6.383297 -8.3844299 2.9831774 0
6.4314671 -8.3475208 2.9831753 0
6.4794297 -8.310338 2.9831729 0
6.5271811 -8.2728767 2.9831707 0
6.5747142 -8.2351427 2.9831684 0
6.622026 -8.1971302 2.983166 0
6.669117 -8.1588583 2.9831641 0
6.7159934 -8.1203041 2.9831614 0
6.7626424 -8.0814857 2.9831591 0
6.809062 -8.0423985 2.9831567 0
6.855267 -8.0030384 2.9831543 0
6.9012399 -7.9634185 2.9831517 0
6.94698 -7.9235358 2.9831493 0
6.9924941 -7.883389 2.9831467 0
7.0377746 -7.842979 2.9831443 0
7.0828223 -7.80231 2.9831419 0
7.1276307 -7.7613821 2.9831393 0
7.1722074 -7.7202005 2.9831369 0
7.2165408 -7.6787601 2.9831343 0
7.2606435 -7.6370611 2.9831319 0
7.3044982 -7.5951128 2.983129 0
7.348114 -7.5529156 2.9831266 0
7.3914871 -7.5104642 2.983124 0
7.4346056 -7.4677639 2.9831214 0
7.477489 -7.4248147 2.9831188 0
7.5201173 -7.3816214 2.9831161 0
7.5624967 -7.3381791 2.9831135 0
7.6046252 -7.2945023 2.9831114 0
7.6465063 -7.2505765 2.983108 0
7.6881313 -7.2064118 2.9831054 0
7.7294984 -7.1620026 2.9831028 0
7.7706094 -7.1173735 2.9830999 0
7.8114614 -7.0724907 2.9830973 0
7.8520632 -7.0273786 2.9830945 0
7.8923965 -6.9820318 2.9830918 0
7.9324694 -6.9364557 2.983089 0
7.9722753 -6.8906498 2.9830861 0
8.0118198 -6.8446198 2.9830832 0
8.0510998 -6.7983551 2.9830804 0
8.0901127 -6.7518659 2.9830775 0
8.1288528 -6.7051568 2.9830747 0
8.1673279 -6.6582232 2.9830718 0
8.2055302 -6.6110697 2.9830689 0
8.2434607 -6.5636921 2.9830661 0
8.2811203 -6.516099 2.9830632 0
8.3184996 -6.4682965 2.9830604 0
8.355607 -6.420279 2.9830577 0
8.3924389 -6.3720417 2.9830544 0
5.3747568 -8.07339 2.9831586 0
5.4211669 -8.0422907 2.9831567 0
5.4673896 -8.0109339 2.9831548 0
5.5134287 -7.9793067 2.9831526 0
5.559288 -7.9474168 2.9831507 0
5.6049633 -7.9152637 2.9831488 0
5.6504555 -7.8828416 2.9831469 0
5.6957521 -7.8501711 2.9831448 0
5.7408643 -7.8172317 2.9831429 0
5.7857885 -7.7840333 2.9831407 0
5.8305216 -7.750576 2.9831388 0
5.8750577 -7.7168603 2.9831367 0
5.9193983 -7.6828904 2.9831345 0
5.9635415 -7.6486669 2.9831326 0
6.0074868 -7.6141944 2.9831305 0
6.051239 -7.5794578 2.9831283 0
6.0947843 -7.5444775 2.9831262 0
6.1381288 -7.509253 2.983124 0
6.1812682 -7.4737697 2.9831219 0
6.2242055 -7.4380422 2.9831197 0
6.2669325 -7.4020653 2.9831173 0
6.3094544 -7.36584 2.9831152 0
6.3517666 -7.32938 2.9831131 0
6.3938708 -7.2926707 2.9831107 0
6.4357572 -7.2557225 2.9831085 0
6.4774342 -7.2185254 2.9831061 0
6.5188951 -7.1810985 2.983104 0
6.5601368 -7.1434326 2.9831016 0
6.6011634 -7.1055274 2.9830992 0
6.6419692 -7.0673876 2.9830968 0
6.68256 -7.0290089 2.9830947 0
6.7229238 -6.9904003 2.9830923 0
6.7630663 -6.9515624 2.9830899 0
6.8029861 -6.9124904 2.9830875 0
6.8426723 -6.8731937 2.9830852 0
6.8821411 -6.8336577 2.9830825 0
6.9213805 -6.7939115 2.9830801 0
6.9603872 -6.753931 2.9830778 0
6.9991589 -6.7137308 2.9830754 0
7.0377064 -6.6732965 2.9830728 0
7.0760145 -6.632647 2.9830704 0
7.1140933 -6.5917826 2.9830678 0
7.1519299 -6.5506988 2.9830654 0
7.1895313 -6.5093951 2.9830627 0
7.2268982 -6.4678717 2.9830604 0
7.26402 -6.4261384 2.9830577 0
7.3009057 -6.3841901 2.9830551 0
7.337543 -6.3420367 2.9830525 0
7.3739381 -6.2996683 2.9830499 0
7.4100943 -6.2570853 2.9830475 0
7.4460011 -6.2142973 2.9830449 0
7.481658 -6.1713138 2.9830422 0
7.5170693 -6.1281157 2.9830394 0
7.5522304 -6.0847125 2.9830368 0
7.5871434 -6.0411139 2.9830341 0
7.6218033 -5.9973102 2.9830315 0
7.6562061 -5.953311 2.9830289 0
7.6903615 -5.909112 2.983026 0
7.7242579 -5.8647175 2.9830234 0
4.9732609 -7.4703026 2.9831216 0
5.0162024 -7.4415236 2.9831197 0
5.0589724 -7.4125099 2.9831181 0
5.1015711 -7.3832469 2.9831161 0
5.1440067 -7.3537402 2.9831145 0
5.1862683 -7.3239894 2.9831126 0
5.2283645 -7.2939939 2.9831109 0
5.2702785 -7.2637548 2.983109 0
5.3120217 -7.2332811 2.9831071 0
5.3535891 -7.2025633 2.9831052 0
5.3949771 -7.1716065 2.9831033 0
5.4361901 -7.1404052 2.9831014 0
5.4772158 -7.1089797 2.9830995 0
5.518064 -7.0773144 2.9830976 0
5.5587282 -7.0454102 2.9830956 0
5.5992126 -7.0132713 2.9830937 0
5.6395044 -6.9809031 2.9830916 0
5.6796093 -6.9483104 2.9830897 0
5.7195277 -6.9154787 2.9830875 0
5.7592578 -6.8824172 2.9830856 0
5.7987928 -6.8491359 2.9830835 0
5.83814 -6.8156152 2.9830816 0
5.8772912 -6.7818751 2.9830794 0
5.9162488 -6.74791 2.9830773 0
5.9550109 -6.7137208 2.9830754 0
5.9935732 -6.6793065 2.9830732 0
6.0319362 -6.6446729 2.9830711 0
6.0701013 -6.6098194 2.9830689 0
6.1080627 -6.5747461 2.9830668 0
6.1458192 -6.5394578 2.9830647 0
6.1833792 -6.5039501 2.9830625 0
6.2207289 -6.4682226 2.9830604 0
6.257875 -6.4322853 2.983058 0
6.2948084 -6.3961329 2.9830558 0
6.3315334 -6.3597703 2.9830537 0
6.368052 -6.3231936 2.9830513 0
6.4043593 -6.2864113 2.9830492 0
6.4404531 -6.2494187 2.983047 0
6.4763331 -6.2122216 2.9830446 0
6.5119972 -6.1748147 2.9830422 0
6.5474463 -6.1371975 2.9830401 0
6.5826807 -6.0993848 2.9830377 0
6.6176906 -6.0613723 2.9830353 0
6.652483 -6.0231543 2.9830329 0
6.6870608 -5.9847317 2.9830308 0
6.7214112 -5.9461184 2.9830284 0
6.755537 -5.9073 2.983026 0
6.7894411 -5.8682961 2.9830236 0
6.8231177 -5.829092 2.9830213 0
6.856576 -5.7896881 2.9830189 0
6.8898001 -5.750103 2.9830163 0
6.9227929 -5.7103276 2.9830139 0
6.9555593 -5.6703568 2.9830115 0
6.9880934 -5.6302009 2.9830091 0
7.0203991 -5.5898542 2.9830065 0
7.0524707 -5.5493217 2.9830041 0
7.0843058 -5.5086136 2.9830015 0
7.1159058 -5.46772 2.9829991 0
7.1472745 -5.4266362 2.9829965 0
4.6227298 -6.9437695 2.9830894 0
4.662643 -6.9170213 2.9830878 0
4.7024012 -6.8900537 2.9830861 0
4.7419996 -6.8628564 2.9830844 0
4.7814417 -6.8354249 2.9830828 0
4.8207254 -6.8077683 2.9830811 0
4.8598547 -6.7798877 2.9830794 0
4.8988161 -6.7517872 2.9830775 0
4.9376173 -6.7234569 2.9830759 0
4.9762526 -6.6949024 2.9830742 0
5.0147243 -6.6661329 2.9830723 0
5.0530338 -6.6371336 2.9830706 0
5.0911684 -6.6079197 2.9830689 0
5.129137 -6.5784817 2.983067 0
5.166935 -6.5488329 2.9830651 0
5.2045655 -6.51896 2.9830635 0
5.2420177 -6.4888768 2.9830616 0
5.2792969 -6.4585791 2.9830596 0
5.3164029 -6.4280615 2.9830577 0
5.353334 -6.3973293 2.9830561 0
5.3900809 -6.3663917 2.9830542 0
5.4266553 -6.3352342 2.9830523 0
5.4630508 -6.3038721 2.9830503 0
5.4992604 -6.2722998 2.9830482 0
5.5352883 -6.2405272 2.9830463 0
5.5711355 -6.2085352 2.9830444 0
5.6067958 -6.176343 2.9830425 0
5.6422682 -6.1439452 2.9830403 0
5.6775551 -6.1113429 2.9830384 0
5.7126517 -6.0785451 2.9830365 0
5.7475638 -6.045537 2.9830344 0
5.7822814 -6.0123291 2.9830325 0
5.8168068 -5.9789257 2.9830303 0
5.8511391 -5.9453273 2.9830284 0
5.8852773 -5.9115281 2.9830263 0
5.9192238 -5.8775244 2.9830241 0
5.95297 -5.8433352 2.983022 0
5.9865212 -5.8089504 2.9830201 0
6.0198708 -5.774375 2.9830179 0
6.0530238 -5.7396045 2.9830158 0
6.0859742 -5.7046437 2.9830136 0
6.1187258 -5.6694922 2.9830115 0
6.1512685 -5.6341553 2.9830093 0
6.1836109 -5.5986376 2.9830072 0
6.2157483 -5.5629201 2.9830048 0
6.2476797 -5.5270314 2.9830027 0
6.2794032 -5.490952 2.9830005 0
6.3109155 -5.4546924 2.9829984 0
6.3422194 -5.418252 2.982996 0
6.3733182 -5.3816309 2.9829938 0
6.4042006 -5.3448291 2.9829915 0
6.4348707 -5.3078566 2.9829893 0
6.4653258 -5.2707033 2.9829869 0
6.4955688 -5.2333789 2.9829848 0
6.5256009 -5.1958742 2.9829824 0
6.5554104 -5.1582031 2.9829803 0
6.585 -5.1203613 2.9829779 0
6.6143765 -5.0823488 2.9829755 0
6.6435342 -5.0441651 2.9829731 0
4.3137455 -6.4796433 2.9830611 0
4.3509927 -6.4546876 2.9830594 0
4.388092 -6.4295216 2.983058 0
4.4250441 -6.4041405 2.9830563 0
4.4618506 -6.3785448 2.9830549 0
4.4985085 -6.3527393 2.9830532 0
4.5350232 -6.3267236 2.9830515 0
4.5713782 -6.300498 2.9830501 0
4.6075883 -6.2740626 2.9830484 0
4.6436429 -6.2474217 2.9830468 0
4.6795411 -6.2205715 2.9830451 0
4.7152896 -6.1935105 2.9830434 0
4.7508755 -6.1662502 2.9830418 0
4.7863073 -6.1387844 2.9830401 0
4.8215799 -6.1111131 2.9830384 0
4.8566957 -6.0832372 2.9830368 0
4.891643 -6.0551662 2.9830351 0
4.9264321 -6.0268898 2.9830332 0
4.9610586 -5.9984131 2.9830315 0
4.9955201 -5.9697366 2.9830298 0
5.0298109 -5.9408641 2.9830279 0
5.063942 -5.9117918 2.9830263 0
5.0979018 -5.8825293 2.9830244 0
5.1316934 -5.8530664 2.9830227 0
5.1653128 -5.8234129 2.9830208 0
5.1987648 -5.7935596 2.9830191 0
5.2320399 -5.7635207 2.9830172 0
5.2651453 -5.7332911 2.9830153 0
5.2980728 -5.7028661 2.9830134 0
5.3308229 -5.6722608 2.9830115 0
5.3634024 -5.6414599 2.9830098 0
5.3957996 -5.6104736 2.9830079 0
5.4280176 -5.5793018 2.983006 0
5.4600563 -5.5479445 2.9830041 0
5.4919119 -5.5164061 2.9830019 0
5.5235901 -5.4846778 2.983 0
5.5550809 -5.4527736 2.9829981 0
5.5863919 -5.4206839 2.9829962 0
5.6175113 -5.388423 2.9829943 0
5.6484499 -5.3559718 2.9829922 0
5.6791968 -5.3233547 2.9829903 0
5.7097597 -5.2905517 2.9829884 0
5.7401271 -5.2575784 2.9829862 0
5.7703075 -5.2244287 2.9829843 0
5.8002992 -5.1911082 2.9829822 0
5.8300943 -5.1576076 2.98298 0
5.8596988 -5.1239452 2.9829781 0
5.8891044 -5.0901122 2.982976 0
5.9183192 -5.0561037 2.9829738 0
5.9473367 -5.0219288 2.9829719 0
5.9761562 -4.9875927 2.9829698 0
6.0047755 -4.9530907 2.9829676 0
6.033196 -4.9184227 2.9829655 0
6.06142 -4.8835888 2.9829633 0
6.0894437 -4.8485937 2.9829612 0
6.1172609 -4.8134422 2.982959 0
6.1448731 -4.7781301 2.9829569 0
6.1722856 -4.7426562 2.9829547 0
6.1994953 -4.7070217 2.9829526 0
4.0390725 -6.0670605 2.9830358 0
4.0739465 -6.0436916 2.9830344 0
4.1086855 -6.0201268 2.9830329 0
4.1432824 -5.9963622 2.9830315 0
4.1777482 -5.9723973 2.9830298 0
4.2120719 -5.9482374 2.9830284 0
4.2462611 -5.9238768 2.983027 0
4.2803006 -5.8993211 2.9830256 0
4.3142042 -5.8745656 2.9830239 0
4.3479629 -5.8496242 2.9830225 0
4.3815775 -5.8244777 2.983021 0
4.41505 -5.7991457 2.9830194 0
4.4483695 -5.7736182 2.9830177 0
4.4815454 -5.7479005 2.9830163 0
4.5145707 -5.721992 2.9830146 0
4.5474515 -5.6958938 2.9830132 0
4.5801759 -5.6696095 2.9830115 0
4.6127481 -5.6431346 2.9830098 0
4.6451712 -5.6164746 2.9830081 0
4.6774378 -5.5896239 2.9830065 0
4.7095461 -5.562593 2.9830048 0
4.7415042 -5.5353713 2.9830031 0
4.7733021 -5.5079641 2.9830015 0
4.8049417 -5.480381 2.9829998 0
4.8364234 -5.4526124 2.9829981 0
4.8677421 -5.4246678 2.9829965 0
4.8989005 -5.396543 2.9829948 0
4.9298964 -5.3682323 2.9829929 0
4.9607277 -5.3397512 2.9829912 0
4.9913931 -5.311089 2.9829895 0
5.0218983 -5.2822509 2.9829876 0
5.0522327 -5.2532372 2.982986 0
5.0824013 -5.2240529 2.9829841 0
5.1124001 -5.1946874 2.9829824 0
5.1422281 -5.1651564 2.9829805 0
5.1718874 -5.1354542 2.9829788 0
5.2013745 -5.1055813 2.9829769 0
5.2306886 -5.0755372 2.982975 0
5.259829 -5.0453272 2.9829733 0
5.2887964 -5.0149465 2.9829714 0
5.3175869 -4.9843993 2.9829695 0
5.3462024 -4.9536867 2.9829676 0
5.374639 -4.9228125 2.9829657 0
5.4028983 -4.8917775 2.9829638 0
5.4309778 -4.8605714 2.9829619 0
5.4588795 -4.8292089 2.98296 0
5.4865994 -4.7976856 2.9829581 0
5.5141311 -4.7660108 2.9829562 0
5.5414863 -4.7341747 2.9829543 0
5.5686564 -4.7021728 2.9829524 0
5.5956416 -4.6700196 2.9829502 0
5.6224394 -4.6377196 2.9829483 0
5.6490521 -4.6052542 2.9829464 0
5.6754756 -4.5726418 2.9829443 0
5.7017155 -4.5398731 2.9829423 0
5.7277632 -4.506958 2.9829402 0
5.7536201 -4.4738965 2.9829383 0
5.7792854 -4.4406838 2.9829361 0
5.8047624 -4.4073195 2.9829342 0
3.7930605 -5.6975245 2.9830132 0
3.8258095 -5.675581 2.9830117 0
3.8584328 -5.6534524 2.9830105 0
3.890923 -5.6311378 2.9830091 0
3.9232876 -5.6086278 2.9830077 0
3.9555225 -5.5859423 2.9830062 0
3.9876285 -5.5630617 2.9830048 0
4.0195961 -5.5400047 2.9830036 0
4.0514331 -5.516758 2.9830022 0
4.0831375 -5.49333 2.9830008 0
4.114706 -5.4697218 2.9829991 0
4.1461391 -5.4459276 2.9829977 0
4.1774282 -5.4219627 2.9829962 0
4.2085829 -5.3978124 2.9829948 0
4.2396011 -5.3734765 2.9829934 0
4.2704763 -5.3489699 2.9829919 0
4.3012061 -5.3242822 2.9829903 0
4.3317981 -5.2994237 2.9829888 0
4.3622437 -5.2743797 2.9829872 0
4.3925443 -5.2491698 2.9829857 0
4.422698 -5.2237844 2.9829841 0
4.4527116 -5.1982226 2.9829826 0
4.4825711 -5.1724901 2.982981 0
4.5122843 -5.1465821 2.9829795 0
4.5418472 -5.120513 2.9829779 0
4.5712609 -5.0942678 2.9829762 0
4.6005201 -5.0678468 2.9829745 0
4.6296277 -5.0412698 2.9829731 0
4.6585832 -5.0145216 2.9829714 0
4.6873803 -4.9876075 2.9829698 0
4.7160268 -4.9605227 2.9829681 0
4.7445145 -4.9332762 2.9829664 0
4.7728457 -4.905869 2.9829648 0
4.8010168 -4.8782911 2.9829631 0
4.8290286 -4.8505616 2.9829614 0
4.8568826 -4.8226709 2.9829595 0
4.8845739 -4.7946095 2.9829578 0
4.9121037 -4.7663965 2.9829562 0
4.9394698 -4.7380323 2.9829545 0
4.9666719 -4.709497 2.9829526 0
4.9937105 -4.6808157 2.9829509 0
5.0205827 -4.6519775 2.9829493 0
5.0472856 -4.6229787 2.9829473 0
5.0738239 -4.5938282 2.9829457 0
5.1001959 -4.5645266 2.9829438 0
5.1263947 -4.535078 2.9829421 0
5.1524262 -4.5054784 2.9829402 0
5.1782842 -4.4757276 2.9829383 0
5.2039714 -4.4458303 2.9829366 0
5.2294879 -4.4157815 2.9829347 0
5.2548285 -4.3855858 2.9829328 0
5.2799945 -4.3552489 2.9829311 0
5.3049874 -4.3247657 2.9829292 0
5.3298016 -4.2941356 2.9829273 0
5.354445 -4.2633691 2.9829254 0
5.3789043 -4.2324562 2.9829235 0
5.4031868 -4.2014065 2.9829216 0
5.4272895 -4.1702199 2.9829197 0
5.4512162 -4.1388869 2.9829178 0
3.5712285 -5.3643112 2.9829926 0
3.6020646 -5.343657 2.9829915 0
3.6327775 -5.3228168 2.9829903 0
3.6633708 -5.3018117 2.9829888 0
3.6938419 -5.2806201 2.9829876 0
3.7241912 -5.2592578 2.9829862 0
3.7544205 -5.2377195 2.982985 0
3.7845182 -5.2160058 2.9829836 0
3.8144927 -5.1941261 2.9829824 0
3.8443449 -5.1720653 2.982981 0
3.8740642 -5.1498342 2.9829795 0
3.9036601 -5.1274366 2.9829783 0
3.9331205 -5.1048684 2.9829769 0
3.9624529 -5.082129 2.9829755 0
3.9916544 -5.0592237 2.9829741 0
4.0207267 -5.0361428 2.9829726 0
4.0496607 -5.0129051 2.9829712 0
4.0784607 -4.9894972 2.9829698 0
4.1071277 -4.9659228 2.9829683 0
4.1356559 -4.9421825 2.9829669 0
4.1640468 -4.9182863 2.9829655 0
4.1923022 -4.8942189 2.982964 0
4.2204189 -4.8699903 2.9829626 0
4.248395 -4.8456006 2.9829609 0
4.2762284 -4.8210497 2.9829595 0
4.3039222 -4.7963381 2.9829581 0
4.3314686 -4.7714696 2.9829564 0
4.3588753 -4.7464404 2.982955 0
4.386137 -4.7212548 2.9829533 0
4.41325 -4.6959181 2.9829519 0
4.4402218 -4.6704202 2.9829502 0
4.4670439 -4.6447659 2.9829488 0
4.4937191 -4.6189599 2.9829471 0
4.5202436 -4.592998 2.9829457 0
4.5466132 -4.5668898 2.982944 0
4.5728412 -4.5406251 2.9829423 0
4.5989132 -4.514214 2.9829407 0
4.6248336 -4.4876466 2.9829392 0
4.6505976 -4.4609423 2.9829376 0
4.6762104 -4.4340773 2.9829359 0
4.7016683 -4.4070654 2.9829342 0
4.7269673 -4.3799171 2.9829326 0
4.75211 -4.3526173 2.9829309 0
4.7770967 -4.3251758 2.9829292 0
4.8019271 -4.2975879 2.9829276 0
4.8265939 -4.2698584 2.9829259 0
4.8511028 -4.2419925 2.982924 0
4.8754473 -4.2139745 2.9829223 0
4.8996344 -4.1858301 2.9829206 0
4.9236579 -4.1575341 2.982919 0
4.9475164 -4.1291113 2.9829173 0
4.9712114 -4.1005468 2.9829154 0
4.9947429 -4.0718455 2.9829137 0
5.018106 -4.0430126 2.9829118 0
5.0413079 -4.0140333 2.9829102 0
5.0643377 -3.9849319 2.9829085 0
5.0871992 -3.9557035 2.9829066 0
5.1098943 -3.9263334 2.9829047 0
5.1324201 -3.8968363 2.982903 0
3.369987 -5.0620308 2.9829743 0
3.3990848 -5.0425339 2.9829731 0
3.4280682 -5.0228753 2.9829719 0
3.4569352 -5.0030465 2.9829707 0
3.4856913 -4.9830513 2.9829695 0
3.5143301 -4.9628901 2.9829681 0
3.5428545 -4.9425631 2.9829669 0
3.5712578 -4.9220796 2.9829657 0
3.5995464 -4.9014254 2.9829645 0
3.6277115 -4.8806148 2.9829631 0
3.6557572 -4.8596382 2.9829619 0
3.6836858 -4.838501 2.9829607 0
3.7114885 -4.8172021 2.9829593 0
3.7391667 -4.7957473 2.9829581 0
3.7667241 -4.7741308 2.9829566 0
3.7941556 -4.7523537 2.9829552 0
3.8214605 -4.7304249 2.982954 0
3.8486381 -4.7083397 2.9829526 0
3.8756888 -4.686089 2.9829512 0
3.9026115 -4.6636915 2.98295 0
3.9294012 -4.6411376 2.9829485 0
3.9560649 -4.618423 2.9829471 0
3.9825969 -4.5955615 2.9829457 0
4.008996 -4.5725489 2.9829443 0
4.0352621 -4.5493798 2.9829428 0
4.0613933 -4.5260596 2.9829414 0
4.0873909 -4.5025978 2.98294 0
4.1132526 -4.4789796 2.9829385 0
4.1389775 -4.455215 2.9829371 0
4.1645651 -4.4312987 2.9829357 0
4.1900153 -4.4072413 2.9829342 0
4.2153268 -4.3830323 2.9829328 0
4.2404962 -4.3586817 2.9829311 0
4.2655282 -4.3341846 2.9829297 0
4.2904143 -4.309546 2.9829283 0
4.3151617 -4.284761 2.9829266 0
4.3397651 -4.2598338 2.9829252 0
4.364223 -4.2347708 2.9829237 0
4.3885345 -4.2095656 2.9829221 0
4.4127069 -4.1842189 2.9829206 0
4.4367304 -4.1587305 2.982919 0
4.4606037 -4.1331105 2.9829175 0
4.4843307 -4.1073537 2.9829159 0
4.5079083 -4.0814552 2.9829142 0
4.5313387 -4.0554199 2.9829128 0
4.5546174 -4.029253 2.9829111 0
4.5777459 -4.002954 2.9829094 0
4.6007185 -3.9765236 2.9829078 0
4.6235409 -3.9499564 2.9829063 0
4.6462116 -3.9232571 2.9829047 0
4.6687274 -3.8964357 2.982903 0
4.6910858 -3.8694828 2.9829013 0
4.7132916 -3.8423977 2.9828997 0
4.7353401 -3.8151908 2.982898 0
4.7572322 -3.787847 2.9828963 0
4.7789655 -3.760386 2.9828947 0
4.800539 -3.7328031 2.982893 0
4.8219538 -3.7050931 2.9828913 0
4.8432121 -3.6772561 2.9828897 0
3.186419 -4.7862887 2.9829574 0
3.2139311 -4.7678561 2.9829562 0
3.2413359 -4.7492671 2.9829552 0
3.2686319 -4.7305222 2.982954 0
3.2958195 -4.7116156 2.9829528 0
3.3228984 -4.6925535 2.9829516 0
3.3498697 -4.6733394 2.9829504 0
3.3767264 -4.6539693 2.9829493 0
3.403471 -4.6344428 2.9829481 0
3.4301043 -4.6147604 2.9829469 0
3.4566228 -4.5949264 2.9829457 0
3.4830303 -4.5749412 2.9829445 0
3.5093181 -4.5548043 2.9829433 0
3.53549 -4.5345163 2.9829421 0
3.5615458 -4.5140767 2.9829407 0
3.5874846 -4.4934907 2.9829395 0
3.6133001 -4.4727488 2.9829383 0
3.6389959 -4.4518647 2.9829369 0
3.6645744 -4.4308352 2.9829357 0
3.6900311 -4.4096532 2.9829342 0
3.7153606 -4.3883252 2.982933 0
3.7405753 -4.3668556 2.9829319 0
3.7656596 -4.3452344 2.9829304 0
3.7906218 -4.3234715 2.982929 0
3.8154583 -4.3015723 2.9829278 0
3.8401651 -4.2795215 2.9829264 0
3.8647454 -4.2573342 2.9829249 0
3.8891997 -4.2350049 2.9829237 0
3.9135234 -4.2125344 2.9829223 0
3.9377165 -4.1899266 2.9829209 0
3.9617815 -4.1671729 2.9829195 0
3.9857121 -4.1442871 2.982918 0
4.0095124 -4.1212597 2.9829166 0
4.0331793 -4.0980959 2.9829154 0
4.0567107 -4.0748 2.982914 0
4.0801115 -4.0513673 2.9829125 0
4.1033745 -4.0278029 2.9829111 0
4.1265011 -4.0040965 2.9829094 0
4.1494894 -3.9802637 2.982908 0
4.1723442 -3.9562988 2.9829066 0
4.1950555 -3.9321973 2.9829051 0
4.2176313 -3.9079738 2.9829037 0
4.2400641 -3.8836181 2.9829023 0
4.2623591 -3.8591359 2.9829006 0
4.2845135 -3.8345215 2.9828992 0
4.3065243 -3.8097754 2.9828978 0
4.328393 -3.7849073 2.9828961 0
4.3501153 -3.759917 2.9828947 0
4.371695 -3.7347999 2.982893 0
4.3931317 -3.7095606 2.9828916 0
4.4144197 -3.6841943 2.9828899 0
4.4355612 -3.658711 2.9828885 0
4.4565558 -3.6331058 2.9828868 0
4.4774032 -3.6073735 2.9828854 0
4.498105 -3.5815237 2.9828837 0
4.5186543 -3.555557 2.982882 0
4.539052 -3.5294731 2.9828806 0
4.5593023 -3.5032718 2.9828789 0
4.5794015 -3.4769535 2.9828773 0
3.0181291 -4.5335054 2.9829419 0
3.0441899 -4.5160494 2.9829409 0
3.070147 -4.4984369 2.9829397 0
3.095999 -4.4806833 2.9829388 0
3.1217523 -4.4627781 2.9829376 0
3.1474016 -4.4447165 2.9829364 0
3.1729484 -4.426518 2.9829354 0
3.1983855 -4.4081683 2.9829342 0
3.2237198 -4.3896775 2.982933 0
3.2489457 -4.3710299 2.9829321 0
3.2740653 -4.3522506 2.9829309 0
3.2990763 -4.3333197 2.9829297 0
3.3239739 -4.3142476 2.9829285 0
3.3487639 -4.2950287 2.9829273 0
3.3734429 -4.2756686 2.9829261 0
3.3980131 -4.2561665 2.9829249 0
3.4224651 -4.2365279 2.9829237 0
3.446806 -4.2167425 2.9829226 0
3.4710331 -4.1968207 2.9829214 0
3.4951444 -4.1767573 2.9829202 0
3.5191362 -4.1565619 2.982919 0
3.5430181 -4.1362205 2.9829175 0
3.5667803 -4.1157465 2.9829164 0
3.5904241 -4.0951362 2.9829152 0
3.6139457 -4.0743895 2.9829137 0
3.6373491 -4.0535007 2.9829125 0
3.6606328 -4.032485 2.9829113 0
3.6837943 -4.011333 2.9829099 0
3.7068338 -3.9900489 2.9829087 0
3.7297492 -3.9686329 2.9829073 0
3.7525434 -3.9470851 2.9829061 0
3.7752118 -3.9254103 2.9829047 0
3.7977557 -3.9035988 2.9829035 0
3.8201716 -3.8816602 2.9829021 0
3.8424604 -3.8595948 2.9829006 0
3.8646247 -3.8373926 2.9828994 0
3.8866596 -3.8150733 2.982898 0
3.908565 -3.7926221 2.9828966 0
3.9303401 -3.7700489 2.9828951 0
3.9519856 -3.7473488 2.9828939 0
3.9735005 -3.7245264 2.9828925 0
3.9948823 -3.7015772 2.9828911 0
4.0161324 -3.6785109 2.9828897 0
4.0372491 -3.6553175 2.9828882 0
4.0582318 -3.6320021 2.9828868 0
4.0790815 -3.6085694 2.9828854 0
4.0997944 -3.5850148 2.9828839 0
4.1203694 -3.561343 2.9828825 0
4.1408086 -3.537549 2.9828811 0
4.1611152 -3.5136425 2.9828796 0
4.1812787 -3.4896193 2.982878 0
4.201303 -3.4654787 2.9828765 0
4.2211895 -3.4412258 2.9828751 0
4.2409368 -3.4168506 2.9828737 0
4.2605453 -3.3923683 2.982872 0
4.2800093 -3.3677783 2.9828706 0
4.2993293 -3.3430665 2.9828691 0
4.3185091 -3.3182521 2.9828675 0
4.3375483 -3.2933252 2.982866 0
2.8631351 -4.3006883 2.9829278 0
2.887857 -4.2841306 2.9829266 0
2.9124808 -4.2674265 2.9829257 0
2.9370072 -4.2505808 2.9829247 0
2.9614372 -4.2335935 2.9829235 0
2.9857683 -4.2164645 2.9829226 0
3.0100029 -4.199194 2.9829214 0
3.0341363 -4.1817918 2.9829204 0
3.0581658 -4.1642475 2.9829195 0
3.0820987 -4.1465621 2.9829183 0
3.105927 -4.1287398 2.9829171 0
3.1296537 -4.1107855 2.9829161 0
3.1532755 -4.0926948 2.9829149 0
3.1767912 -4.0744576 2.9829137 0
3.2002044 -4.0560932 2.9829128 0
3.2235124 -4.0375924 2.9829116 0
3.2467082 -4.0189643 2.9829104 0
3.269799 -4.000195 2.9829092 0
3.2927823 -3.9812989 2.9829082 0
3.315655 -3.9622657 2.9829071 0
3.3384161 -3.9431055 2.9829059 0
3.3610711 -3.9238136 2.9829047 0
3.3836114 -3.9043849 2.9829035 0
3.4060407 -3.8848293 2.9829023 0
3.4283564 -3.8651514 2.9829011 0
3.4505584 -3.8453369 2.9828999 0
3.4726448 -3.8254004 2.9828987 0
3.4946175 -3.805337 2.9828973 0
3.516474 -3.7851465 2.9828961 0
3.5382123 -3.7648292 2.9828949 0
3.5598371 -3.7443898 2.9828937 0
3.5813398 -3.7238233 2.9828925 0
3.6027265 -3.7031348 2.9828911 0
3.6239913 -3.6823242 2.9828899 0
3.6451349 -3.6613917 2.9828887 0
3.6661627 -3.640332 2.9828873 0
3.6870661 -3.6191554 2.9828861 0
3.707845 -3.5978613 2.9828846 0
3.7285028 -3.5764453 2.9828835 0
3.7490363 -3.5549121 2.982882 0
3.7694476 -3.533257 2.9828808 0
3.7897322 -3.5114894 2.9828794 0
3.8098896 -3.4896095 2.982878 0
