# .PCD v0.7 - Point Cloud Data file format
VERSION 0.7
FIELDS x y z intensity
SIZE 4 4 4 4
TYPE F F F F
COUNT 1 1 1 1
WIDTH 1184
HEIGHT 1
VIEWPOINT 0 0 0 1 0 0 0
POINTS 1184
DATA ascii
23.099997 -0.55732769 -4.0743375 0
23.099997 -0.42576024 -4.0738449 0
23.099997 0.10027709 -4.0731907 0
23.1 0.23178709 -4.0733581 0
23.099997 0.36330011 -4.0736566 0
23.099997 0.49484855 -4.0740867 0
23.1 0.6264174 -4.0746498 0
23.099997 0.75803876 -4.0753455 0
23.099997 0.88970923 -4.0761724 0
23.099997 1.0214255 -4.0771332 0
23.1 1.1532204 -4.0782251 0
23.099997 1.2850903 -4.0794511 0
23.099997 1.417031 -4.0808091 0
23.1 1.5490767 -4.0823011 0
23.099997 1.68121 -4.0839257 0
23.1 1.8134662 -4.0856857 0
23.099997 1.9458406 -4.0875788 0
23.099997 2.0783288 -4.0896049 0
23.1 2.2109663 -4.0917673 0
23.1 2.343735 -4.0940642 0
23.099997 2.47667 -4.0964966 0
23.099997 2.6097679 -4.0990648 0
23.099997 2.7430234 -4.101769 0
23.099997 2.8764729 -4.1046104 0
23.099997 3.0101109 -4.1075878 0
23.099997 3.1439357 -4.1107039 0
23.099997 3.2779803 -4.1139593 0
23.099997 3.4122281 -4.1173506 0
23.1 3.5467153 -4.1208835 0
23.099997 3.6814373 -4.1245546 0
23.099997 3.8163912 -4.1283674 0
23.099997 3.9516122 -4.1323195 0
23.1 4.0870857 -4.1364155 0
23.099997 4.2228417 -4.1406522 0
23.099997 4.3588829 -4.1450329 0
23.1 4.495204 -4.1495581 0
23.099997 4.6318398 -4.1542263 0
23.1 -0.55732727 -3.539819 0
23.099997 -0.42576021 -3.5393908 0
23.099997 0.10027681 -3.5388241 0
23.099997 0.23178712 -3.5389671 0
23.1 0.36330017 -3.5392277 0
23.1 0.49484858 -3.539602 0
23.099997 0.62641722 -3.5400903 0
23.099997 0.75803882 -3.540695 0
23.099997 0.88970929 -3.5414138 0
23.099997 1.0214256 -3.5422473 0
23.1 1.1532204 -3.5431972 0
23.099997 1.2850899 -3.544261 0
23.099997 1.4170309 -3.5454421 0
23.099997 1.5490766 -3.5467386 0
23.099997 1.6812102 -3.5481493 0
23.1 1.8134661 -3.549679 0
23.099997 1.9458408 -3.5513237 0
23.099997 2.0783293 -3.5530846 0
23.099997 2.2109659 -3.5549619 0
23.099997 2.3437352 -3.5569575 0
23.099997 2.4766703 -3.5590711 0
23.1 2.6097677 -3.5613027 0
23.099997 2.7430236 -3.563652 0
23.099997 2.8764727 -3.5661206 0
23.099997 3.0101109 -3.5687075 0
23.099997 3.1439354 -3.5714147 0
23.099997 3.2779794 -3.5742424 0
23.1 3.4122276 -3.5771899 0
23.099997 3.5467148 -3.5802588 0
23.099997 3.6814368 -3.5834482 0
23.099997 3.8163917 -3.5867603 0
23.099997 3.9516122 -3.5901952 0
23.099997 4.0870852 -3.5937526 0
23.1 4.2228422 -3.5974345 0
23.099997 4.3588829 -3.6012402 0
23.099997 4.4952035 -3.605171 0
23.1 4.6318398 -3.6092284 0
23.1 -0.55732775 -3.0089772 0
23.099997 -0.42576039 -3.0086124 0
23.099997 0.10027693 -3.0081296 0
23.1 0.23178692 -3.0082531 0
23.1 0.36329997 -3.0084741 0
23.1 0.49484873 -3.0087917 0
23.099997 0.62641728 -3.0092065 0
23.099997 0.75803864 -3.009721 0
23.099997 0.88970941 -3.0103316 0
23.099997 1.0214256 -3.0110407 0
23.099997 1.1532201 -3.011847 0
23.099997 1.2850899 -3.0127521 0
23.099997 1.4170308 -3.0137558 0
23.099997 1.5490764 -3.0148578 0
23.1 1.6812104 -3.0160568 0
23.099997 1.8134661 -3.0173566 0
23.099997 1.9458405 -3.0187552 0
23.099997 2.0783293 -3.0202525 0
23.099997 2.2109656 -3.021848 0
23.099997 2.343735 -3.0235445 0
23.1 2.4766703 -3.0253415 0
23.099997 2.6097674 -3.0272374 0
23.099997 2.7430232 -3.0292349 0
23.099997 2.8764725 -3.031333 0
23.099997 3.0101116 -3.0335331 0
23.099997 3.1439354 -3.0358341 0
23.099997 3.2779794 -3.0382369 0
23.099997 3.4122286 -3.0407424 0
23.099997 3.546715 -3.0433507 0
23.1 3.6814377 -3.0460632 0
23.1 3.8163915 -3.0488789 0
23.099997 3.951612 -3.0517964 0
23.1 4.0870852 -3.0548217 0
23.1 4.2228422 -3.0579515 0
23.099997 4.3588829 -3.0611868 0
23.099997 4.4952035 -3.0645282 0
23.099997 4.6318393 -3.0679758 0
23.099997 -0.55732757 -2.4812386 0
23.1 -0.42576045 -2.4809387 0
23.099997 0.10027687 -2.4805398 0
23.1 0.23178685 -2.4806418 0
23.099997 0.36329988 -2.4808238 0
23.1 0.49484897 -2.481086 0
23.1 0.62641722 -2.4814284 0
23.099997 0.75803864 -2.4818513 0
23.099997 0.88970971 -2.4823556 0
23.099997 1.0214254 -2.4829397 0
23.099997 1.1532203 -2.4836059 0
23.099997 1.28509 -2.4843521 0
23.099997 1.417031 -2.4851794 0
23.099997 1.5490766 -2.4860878 0
23.099997 1.6812103 -2.4870775 0
23.099997 1.8134661 -2.4881485 0
23.099997 1.94584 -2.4893014 0
23.099997 2.0783291 -2.4905365 0
23.1 2.2109661 -2.491853 0
23.099997 2.3437355 -2.493252 0
23.1 2.4766703 -2.4947333 0
23.099997 2.6097679 -2.4962969 0
23.1 2.7430241 -2.4979439 0
23.099997 2.8764727 -2.4996738 0
23.099997 3.0101116 -2.5014882 0
23.099997 3.1439352 -2.5033853 0
23.099997 3.2779796 -2.5053666 0
23.099997 3.4122283 -2.5074334 0
23.099997 3.5467153 -2.5095835 0
23.099997 3.6814368 -2.5118196 0
23.099997 3.8163915 -2.5141418 0
23.099997 3.9516129 -2.5165496 0
23.099997 4.0870857 -2.5190432 0
23.1 4.2228422 -2.5216236 0
23.099997 4.3588834 -2.5242915 0
23.099997 4.495204 -2.5270469 0
23.099997 4.6318383 -2.5298901 0
23.257221 -0.56112075 -1.9693613 0
23.256571 -0.42864633 -1.9690676 0
23.255503 0.10095207 -1.9686613 0
23.255611 0.2333483 -1.9687519 0
23.255878 0.36575153 -1.9689178 0
23.256296 0.4981969 -1.9691615 0
23.256865 0.63067126 -1.9694824 0
23.257586 0.76321 -1.9698792 0
23.258457 0.89581245 -1.9703531 0
23.25948 1.0284773 -1.9709029 0
23.26066 1.1612412 -1.9715314 0
23.261992 1.2941023 -1.9722371 0
23.263474 1.4270586 -1.9730191 0
23.265114 1.5601488 -1.9738799 0
23.266903 1.6933573 -1.9748174 0
23.26885 1.8267219 -1.9758335 0
23.270948 1.9602401 -1.976927 0
23.273205 2.0939131 -1.9780997 0
23.275614 2.2277751 -1.97935 0
23.278181 2.3618135 -1.9806795 0
23.280909 2.496067 -1.9820882 0
23.283789 2.6305318 -1.9835765 0
23.286823 2.7652082 -1.9851431 0
23.290024 2.9001358 -1.9867921 0
23.293379 3.03531 -1.9885199 0
23.296894 3.1707332 -1.9903287 0
23.300571 3.306442 -1.9922186 0
23.304407 3.4424229 -1.9941891 0
23.308407 3.5787141 -1.9962436 0
23.312569 3.7153141 -1.9983777 0
23.316895 3.8522248 -2.0005965 0
23.321384 3.9894836 -2.0028977 0
23.32604 4.127079 -2.0052826 0
23.330864 4.2650461 -2.0077524 0
23.335854 4.4033885 -2.0103064 0
23.341013 4.5421052 -2.0129454 0
23.346342 4.6812348 -2.015671 0
23.1 -0.55732781 -1.4328554 0
23.1 -0.42576042 -1.4326818 0
23.099997 0.10027689 -1.4324522 0
23.099997 0.23178688 -1.4325112 0
23.099997 0.36329994 -1.432616 0
23.099997 0.4948487 -1.4327681 0
23.1 0.62641728 -1.432966 0
23.099997 0.75803864 -1.4332095 0
23.099997 0.88970983 -1.4335014 0
23.1 1.0214257 -1.4338388 0
23.099997 1.1532203 -1.4342232 0
23.099997 1.28509 -1.4346542 0
23.099997 1.4170308 -1.4351314 0
23.099997 1.5490761 -1.435656 0
23.1 1.6812102 -1.4362272 0
23.1 1.8134661 -1.4368457 0
23.099997 1.9458401 -1.4375118 0
23.099997 2.0783288 -1.4382252 0
23.099997 2.2109659 -1.4389852 0
23.1 2.343735 -1.4397925 0
23.099997 2.4766705 -1.4406484 0
23.099997 2.6097674 -1.4415516 0
23.099997 2.7430234 -1.4425025 0
23.099997 2.8764729 -1.4435015 0
23.099997 3.0101118 -1.4445497 0
23.099997 3.1439357 -1.445645 0
23.099997 3.2779791 -1.4467895 0
23.1 3.4122288 -1.4479831 0
23.1 3.5467162 -1.4492249 0
23.099997 3.6814375 -1.4505159 0
23.1 3.8163903 -1.4518559 0
23.099997 3.9516129 -1.4532466 0
23.099997 4.0870848 -1.4546868 0
23.099997 4.2228422 -1.4561771 0
23.1 4.3588834 -1.457718 0
23.099997 4.4952035 -1.459309 0
23.1 4.6318398 -1.4609514 0
23.099997 -0.55732763 -0.9111228 0
23.1 -0.42576054 -0.91101235 0
23.1 0.10027675 -0.91086644 0
23.1 0.23178676 -0.91090381 0
23.099997 0.36330011 -0.91097051 0
23.099997 0.49484858 -0.91106701 0
23.099997 0.62641716 -0.91119283 0
23.1 0.75803888 -0.91134846 0
23.1 0.88970935 -0.91153294 0
23.1 1.0214256 -0.91174793 0
23.099997 1.1532204 -0.91199231 0
23.099997 1.2850899 -0.91226643 0
23.099997 1.4170309 -0.9125706 0
23.099997 1.549076 -0.91290319 0
23.1 1.6812104 -0.91326725 0
23.099997 1.8134664 -0.91366035 0
23.099997 1.9458404 -0.91408354 0
23.099997 2.0783296 -0.91453725 0
23.1 2.2109666 -0.91502076 0
23.099997 2.3437352 -0.91553438 0
23.099997 2.47667 -0.91607821 0
23.099997 2.6097677 -0.91665238 0
23.1 2.7430241 -0.91725725 0
23.099997 2.8764727 -0.91789293 0
23.1 3.0101118 -0.91855913 0
23.099997 3.1439362 -0.91925567 0
23.1 3.2779801 -0.91998291 0
23.099997 3.4122274 -0.92074192 0
23.099997 3.546715 -0.92153144 0
23.099997 3.6814377 -0.92235267 0
23.099997 3.8163912 -0.92320496 0
23.1 3.9516129 -0.92408919 0
23.099997 4.0870852 -0.9250049 0
23.1 4.2228427 -0.92595255 0
23.099997 4.3588834 -0.92693198 0
23.099997 4.495204 -0.9279443 0
23.099997 4.6318388 -0.92898786 0
23.1 -0.55732721 -0.39031601 0
23.099997 -0.42576042 -0.39026898 0
23.099997 0.10027687 -0.39020604 0
23.1 0.23178716 -0.39022195 0
23.099997 0.36329994 -0.39025074 0
23.099997 0.4948487 -0.39029193 0
23.099997 0.62641728 -0.39034623 0
23.1 0.75803864 -0.39041293 0
23.099997 0.88970947 -0.39049178 0
23.099997 1.0214256 -0.39058402 0
23.099997 1.1532202 -0.39068863 0
23.1 1.28509 -0.3908059 0
23.099997 1.4170309 -0.39093605 0
23.099997 1.5490767 -0.39107907 0
23.1 1.6812106 -0.39123473 0
23.099997 1.8134658 -0.39140329 0
23.099997 1.9458402 -0.39158446 0
23.1 2.0783293 -0.39177901 0
23.099997 2.2109659 -0.39198595 0
23.099997 2.3437352 -0.39220604 0
23.099997 2.4766705 -0.39243877 0
23.1 2.6097679 -0.39268509 0
23.1 2.7430241 -0.39294407 0
23.1 2.8764727 -0.3932164 0
23.099997 3.0101113 -0.39350161 0
23.1 3.1439366 -0.3938002 0
23.1 3.2779801 -0.3941119 0
23.099997 3.4122286 -0.39443696 0
23.099997 3.5467143 -0.39477515 0
23.099997 3.6814373 -0.39512697 0
23.1 3.8163917 -0.3954919 0
23.1 3.9516137 -0.39587066 0
23.099997 4.0870852 -0.39626282 0
23.099997 4.2228417 -0.39666927 0
23.099997 4.3588839 -0.39708886 0
23.099997 4.4952035 -0.39752206 0
23.099997 4.6318393 -0.3979696 0
23.099997 -0.55732775 0.13009429 0
23.1 -0.42576033 0.13007861 0
23.099997 0.10027665 0.13005763 0
23.099997 0.23178664 0.13006294 0
23.099997 0.36330003 0.13007279 0
23.099997 0.49484879 0.13008618 0
23.1 0.62641734 0.13010412 0
23.099997 0.75803846 0.1301266 0
23.099997 0.88970959 0.13015287 0
23.099997 1.0214254 0.13018344 0
23.099997 1.1532202 0.13021854 0
23.099997 1.2850902 0.13025743 0
23.099997 1.4170309 0.13030086 0
23.1 1.5490766 0.13034858 0
23.099997 1.6812106 0.13040033 0
23.099997 1.8134662 0.13045637 0
23.099997 1.9458404 0.13051718 0
23.1 2.0783293 0.1305818 0
23.1 2.2109659 0.13065045 0
23.1 2.3437355 0.1307241 0
23.099997 2.47667 0.13080156 0
23.099997 2.6097677 0.13088378 0
23.099997 2.7430239 0.13097028 0
23.099997 2.8764727 0.13106082 0
23.099997 3.0101116 0.13115588 0
23.1 3.1439354 0.13125546 0
23.099997 3.2779801 0.13135932 0
23.099997 3.4122274 0.13146746 0
23.099997 3.5467153 0.13158011 0
23.1 3.6814375 0.13169774 0
23.099997 3.8163905 0.13181943 0
23.099997 3.9516122 0.13194539 0
23.099997 4.0870848 0.13207634 0
23.099997 4.2228432 0.1322118 0
23.099997 4.3588834 0.13235153 0
23.099997 4.4952044 0.13249603 0
23.099997 4.6318398 0.13264503 0
23.099997 -0.55732757 0.65063691 0
23.099997 -0.42576024 0.65055805 0
23.1 0.10027675 0.65045363 0
23.099997 0.23178706 0.65048039 0
23.099997 0.36330011 0.65052789 0
23.099997 0.49484858 0.65059662 0
23.099997 0.62641722 0.65068656 0
23.099997 0.75803888 0.65079749 0
23.099997 0.88970941 0.65092963 0
23.099997 1.0214255 0.65108299 0
23.099997 1.1532202 0.65125728 0
23.1 1.2850897 0.65145308 0
23.099997 1.4170306 0.6516701 0
23.1 1.5490766 0.65190828 0
23.099997 1.68121 0.65216774 0
23.099997 1.8134661 0.65244859 0
23.099997 1.94584 0.65275091 0
23.099997 2.0783291 0.65307468 0
23.1 2.2109661 0.65341991 0
23.099997 2.343735 0.65378684 0
23.099997 2.4766705 0.6541754 0
23.1 2.6097679 0.65458548 0
23.1 2.7430241 0.6550172 0
23.099997 2.8764732 0.65547109 0
23.099997 3.0101106 0.65594643 0
23.099997 3.143935 0.65644389 0
23.1 3.2779796 0.65696383 0
23.1 3.4122288 0.65750563 0
23.1 3.5467157 0.65806961 0
23.099997 3.6814375 0.658656 0
23.1 3.8163908 0.65926474 0
23.099997 3.9516129 0.6598959 0
23.1 4.0870848 0.66054994 0
23.099997 4.2228417 0.66122663 0
23.1 4.3588834 0.66192639 0
23.1 4.495204 0.6626488 0
23.1 4.6318398 0.66339433 0
23.1 -0.55732745 1.17184 0
23.099997 -0.42576009 1.1716981 0
23.099997 0.10027658 1.17151 0
23.099997 0.23178719 1.1715579 0
23.099997 0.36329997 1.1716439 0
23.099997 0.49484873 1.1717681 0
23.099997 0.62641734 1.1719296 0
23.099997 0.75803876 1.1721292 0
23.099997 0.88970929 1.1723673 0
23.1 1.0214258 1.1726438 0
23.1 1.1532205 1.1729579 0
23.099997 1.2850901 1.1733104 0
23.1 1.4170308 1.1737014 0
23.1 1.5490762 1.1741303 0
23.099997 1.6812104 1.1745977 0
23.099997 1.813466 1.1751035 0
23.099997 1.94584 1.1756477 0
23.099997 2.0783291 1.176231 0
23.099997 2.2109659 1.1768527 0
23.099997 2.3437355 1.1775132 0
23.099997 2.47667 1.1782126 0
23.099997 2.6097674 1.1789516 0
23.099997 2.7430227 1.1797292 0
23.099997 2.8764727 1.1805466 0
23.099997 3.0101111 1.1814033 0
23.1 3.1439362 1.1822994 0
23.1 3.2779796 1.1832354 0
23.099997 3.4122276 1.1842111 0
23.099997 3.5467145 1.1852269 0
23.099997 3.6814375 1.186283 0
23.1 3.8163912 1.1873795 0
23.099997 3.9516125 1.1885163 0
23.099997 4.0870843 1.1896942 0
23.099997 4.2228422 1.1909128 0
23.099997 4.3588824 1.1921729 0
23.1 4.495204 1.1934743 0
23.099997 4.6318388 1.1948169 0
23.1 -0.55732751 1.6942357 0
23.1 -0.42576018 1.6940306 0
23.099997 0.1002771 1.6937587 0
23.1 0.2317871 1.6938281 0
23.099997 0.36329988 1.6939522 0
23.099997 0.49484864 1.6941313 0
23.099997 0.62641728 1.6943655 0
23.099997 0.75803864 1.6946543 0
23.1 0.88970953 1.6949987 0
23.1 1.0214257 1.6953977 0
23.099997 1.1532204 1.6958524 0
23.099997 1.28509 1.6963617 0
23.099997 1.4170307 1.6969264 0
23.099997 1.5490764 1.697547 0
23.1 1.6812105 1.6982228 0
23.099997 1.8134662 1.698954 0
23.099997 1.94584 1.699741 0
23.099997 2.0783298 1.7005843 0
23.099997 2.2109661 1.701483 0
23.099997 2.3437352 1.702438 0
23.099997 2.4766703 1.7034498 0
23.099997 2.6097679 1.704518 0
23.1 2.7430241 1.7056425 0
23.1 2.8764722 1.7068236 0
23.099997 3.0101111 1.7080621 0
23.1 3.1439352 1.7093579 0
23.1 3.2779799 1.7107111 0
23.099997 3.4122279 1.7121218 0
23.099997 3.546715 1.7135903 0
23.099997 3.6814363 1.7151172 0
23.099997 3.8163917 1.7167022 0
23.099997 3.9516115 1.7183465 0
23.099997 4.0870848 1.7200495 0
23.1 4.2228417 1.7218112 0
23.099997 4.3588824 1.7236327 0
23.099997 4.495204 1.7255143 0
23.1 4.6318393 1.7274563 0
23.099997 -0.55732751 2.218359 0
23.1 -0.42576015 2.2180905 0
23.099997 0.1002768 2.2177343 0
23.099997 0.2317871 2.2178261 0
23.099997 0.36329988 2.2179883 0
23.099997 0.49484864 2.2182229 0
23.1 0.62641728 2.2185292 0
23.1 0.7580387 2.2189083 0
23.099997 0.88970959 2.2193582 0
23.099997 1.0214257 2.2198808 0
23.099997 1.1532204 2.2204757 0
23.1 1.2850906 2.2211437 0
23.099997 1.4170308 2.2218823 0
23.1 1.5490769 2.2226951 0
23.1 1.68121 2.2235801 0
23.1 1.8134662 2.2245374 0
23.099997 1.9458401 2.2255681 0
23.1 2.0783293 2.2266724 0
23.1 2.2109666 2.2278495 0
23.1 2.3437352 2.2290993 0
23.099997 2.47667 2.2304246 0
23.1 2.6097674 2.2318223 0
23.1 2.7430239 2.233295 0
23.099997 2.8764729 2.2348416 0
23.1 3.0101113 2.2364633 0
23.099997 3.1439359 2.2381597 0
23.1 3.2779796 2.2399318 0
23.1 3.4122281 2.2417786 0
23.1 3.5467148 2.2437015 0
23.099997 3.681438 2.2457006 0
23.1 3.8163917 2.247777 0
23.099997 3.9516115 2.2499282 0
23.099997 4.0870843 2.2521579 0
23.099997 4.2228413 2.2544656 0
23.099997 4.358882 2.2568507 0
23.099997 4.495204 2.2593143 0
23.099997 4.6318388 2.2618563 0
23.099997 -0.55732739 2.7447541 0
23.1 -0.42576033 2.7444217 0
23.099997 0.10027664 2.7439818 0
23.1 0.23178695 2.7440941 0
23.099997 0.36330003 2.7442956 0
23.099997 0.49484879 2.7445855 0
23.1 0.6264174 2.7449648 0
23.099997 0.75803888 2.7454333 0
23.1 0.88970941 2.745991 0
23.1 1.0214254 2.7466373 0
23.099997 1.1532203 2.7473731 0
23.099997 1.2850901 2.748199 0
23.099997 1.4170308 2.7491138 0
23.1 1.5490766 2.7501194 0
23.1 1.6812103 2.7512138 0
23.099997 1.8134662 2.7523983 0
23.099997 1.9458398 2.7536736 0
23.099997 2.0783291 2.7550399 0
23.1 2.2109663 2.7564964 0
23.099997 2.3437355 2.7580435 0
23.099997 2.4766698 2.7596817 0
23.1 2.6097682 2.7614126 0
23.099997 2.7430239 2.7632341 0
23.099997 2.8764729 2.7651482 0
23.099997 3.0101118 2.7671549 0
23.099997 3.1439354 2.769253 0
23.099997 3.2779799 2.7714458 0
23.099997 3.4122279 2.7737312 0
23.1 3.5467153 2.7761106 0
23.099997 3.6814373 2.778584 0
23.099997 3.81639 2.7811515 0
23.099997 3.9516122 2.7838154 0
23.1 4.0870848 2.7865741 0
23.099997 4.2228427 2.7894289 0
23.1 4.3588839 2.7923803 0
23.1 4.495204 2.7954278 0
23.1 4.6318398 2.798573 0
21.040779 -0.50764549 2.9821205 0
21.043278 -0.38785273 2.9821134 0
21.046442 0.09135475 2.982084 0
21.045528 0.21116431 2.9820764 0
21.043938 0.33095923 2.9820693 0
21.04166 0.45074925 2.9820619 0
21.038704 0.57051492 2.9820547 0
21.035065 0.69027078 2.9820473 0
21.030743 0.8100071 2.9820399 0
21.02574 0.92969948 2.9820328 0
21.020056 1.0493772 2.9820254 0
21.013683 1.1690208 2.982018 0
21.006639 1.2886106 2.9820106 0
20.998911 1.4081761 2.9820035 0
20.990507 1.527678 2.9819961 0
20.981415 1.6471409 2.9819887 0
20.971649 1.7665501 2.9819815 0
20.961203 1.8858908 2.9819741 0
20.950077 2.005183 2.9819674 0
20.938274 2.1244018 2.9819596 0
20.925789 2.243557 2.9819522 0
20.912626 2.362639 2.981945 0
20.898788 2.4816332 2.9819376 0
20.884268 2.600559 2.9819305 0
20.869072 2.7194016 2.9819231 0
20.85321 2.8381419 2.9819164 0
20.83666 2.9567993 2.9819086 0
20.819441 3.0753489 2.9819014 0
20.801548 3.1938109 2.9818943 0
20.782976 3.3121703 2.9818866 0
20.763735 3.4304075 2.9818797 0
20.743822 3.5485473 2.9818726 0
20.723236 3.6665599 2.9818652 0
20.701982 3.7844651 2.981858 0
20.68005 3.9022434 2.9818509 0
20.657452 4.0198851 2.9818437 0
20.634186 4.1374097 2.9818368 0
18.096777 -0.4366163 2.9821162 0
18.098928 -0.33358485 2.98211 0
18.101683 0.07857687 2.9820848 0
18.100903 0.18161885 2.9820783 0
18.099541 0.28465107 2.9820721 0
18.097589 0.38767841 2.9820659 0
18.095047 0.49068624 2.9820595 0
18.091921 0.59368914 2.9820533 0
18.088211 0.69667256 2.9820468 0
18.083914 0.79962176 2.9820406 0
18.079031 0.90255636 2.9820342 0
18.073561 1.0054568 2.982028 0
18.067509 1.1083132 2.9820218 0
18.060865 1.2111502 2.9820154 0
18.053642 1.3139334 2.9820092 0
18.045832 1.4166824 2.982003 0
18.037436 1.5193875 2.9819965 0
18.028454 1.6220291 2.9819903 0
18.018894 1.7246315 2.9819841 0
18.008747 1.8271706 2.9819777 0
17.998016 1.9296511 2.9819715 0
17.986702 2.032078 2.9819653 0
17.974806 2.1344266 2.9819589 0
17.962328 2.2367117 2.9819527 0
17.949263 2.3389285 2.9819465 0
17.935621 2.4410527 2.9819403 0
17.921398 2.5431082 2.9819341 0
17.906591 2.645076 2.9819276 0
17.891209 2.7469656 2.9819214 0
17.87524 2.8487675 2.9819152 0
17.858698 2.9504616 2.981909 0
17.841578 3.052073 2.9819028 0
17.823879 3.1535771 2.9818966 0
17.805601 3.2549832 2.9818904 0
17.786747 3.356287 2.9818842 0
17.767317 3.4574735 2.981878 0
17.747309 3.5585525 2.9818718 0
15.860989 -0.38267401 2.9821129 0
15.862883 -0.2923719 2.9821074 0
15.865313 0.068870172 2.9820852 0
15.864631 0.15918267 2.9820797 0
15.863437 0.2494854 2.9820743 0
15.861731 0.33978325 2.9820688 0
15.859514 0.43006644 2.9820633 0
15.856774 0.52033991 2.9820578 0
15.853525 0.61060357 2.9820521 0
15.849771 0.70083308 2.9820466 0
15.84549 0.79104793 2.9820411 0
15.8407 0.88123834 2.9820356 0
15.835398 0.97138971 2.9820302 0
15.829583 1.0615166 2.9820247 0
15.823259 1.1516094 2.9820192 0
15.816415 1.2416631 2.9820135 0
15.80906 1.3316826 2.982008 0
15.801196 1.4216435 2.9820025 0
15.792818 1.5115703 2.981997 0
15.783925 1.6014384 2.9819915 0
15.774524 1.6912627 2.981986 0
15.764611 1.7810332 2.9819806 0
15.754191 1.8707353 2.9819751 0
15.743257 1.9603838 2.9819696 0
15.731812 2.0499737 2.9819641 0
15.719858 2.1394854 2.9819586 0
15.707397 2.2289336 2.9819531 0
15.694424 2.3183038 2.9819477 0
15.680944 2.4076056 2.9819422 0
15.666958 2.496834 2.9819367 0
15.652461 2.5859649 2.9819314 0
15.637456 2.6750274 2.981926 0
15.621953 2.7639873 2.9819205 0
15.605932 2.8528693 2.981915 0
15.58941 2.9416583 2.9819095 0
15.572388 3.03034 2.9819043 0
15.554853 3.1189384 2.9818988 0
14.103714 -0.34027675 2.9821103 0
14.105401 -0.25997937 2.9821055 0
14.107571 0.061233722 2.9820857 0
14.10697 0.14154132 2.9820809 0
14.105913 0.22184406 2.9820759 0
14.104397 0.3021419 2.9820712 0
14.102428 0.38241535 2.9820662 0
14.099998 0.46269366 2.9820611 0
14.097111 0.54295242 2.9820564 0
14.093769 0.62318683 2.9820514 0
14.089971 0.7034114 2.9820466 0
14.085715 0.78360188 2.9820416 0
14.081005 0.86376786 2.9820366 0
14.075834 0.94391435 2.9820318 0
14.07021 1.0240219 2.9820268 0
14.064128 1.1041 2.982022 0
14.057592 1.1841439 2.982017 0
14.0506 1.2641439 2.9820123 0
14.043153 1.3441 2.9820073 0
14.035254 1.424017 2.9820025 0
14.026895 1.50389 2.9819975 0
14.018084 1.5837191 2.9819927 0
14.008821 1.6634847 2.9819877 0
13.9991 1.7432015 2.9819829 0
13.988924 1.8228596 2.9819779 0
13.9783 1.9024544 2.9819732 0
13.967221 1.9819955 2.9819682 0
13.95569 2.0614681 2.9819634 0
13.943708 2.1408772 2.9819586 0
13.93127 2.2202132 2.9819536 0
13.918384 2.2994759 2.9819489 0
13.905044 2.3786654 2.9819441 0
13.891257 2.4577768 2.9819391 0
13.877016 2.5368099 2.9819343 0
13.862329 2.6157649 2.9819295 0
13.847195 2.6946223 2.9819248 0
13.831609 2.7734065 2.9819198 0
12.684885 -0.30604497 2.9821084 0
12.686401 -0.23382542 2.9821038 0
12.68836 0.055071827 2.9820862 0
12.687823 0.12730327 2.9820817 0
12.686872 0.19952494 2.9820774 0
12.685513 0.27174172 2.9820728 0
12.683743 0.34394386 2.9820685 0
12.681562 0.4161509 2.982064 0
12.678969 0.48833352 2.9820597 0
12.675961 0.56049663 2.9820552 0
12.672548 0.63264507 2.9820509 0
12.668721 0.70477885 2.9820464 0
12.664488 0.77687848 2.9820421 0
12.659841 0.84895855 2.9820375 0
12.654783 0.92100441 2.9820333 0
12.649318 0.99303079 2.9820287 0
12.643438 1.0650181 2.9820244 0
12.637153 1.136976 2.9820199 0
12.63046 1.2088901 2.9820156 0
12.623356 1.2807651 2.9820111 0
12.61584 1.3526059 2.9820068 0
12.607917 1.4243979 2.9820025 0
12.599586 1.4961411 2.981998 0
12.590844 1.5678403 2.9819937 0
12.581697 1.6394907 2.9819891 0
12.572142 1.7110776 2.9819849 0
12.56218 1.7826157 2.9819806 0
12.551814 1.8540953 2.981976 0
12.541035 1.9255162 2.9819717 0
12.529852 1.9968736 2.9819674 0
12.518263 2.0681627 2.9819629 0
12.50627 2.1393883 2.9819586 0
12.493871 2.2105358 2.9819543 0
12.481066 2.2816198 2.98195 0
12.467857 2.3526304 2.9819455 0
12.454247 2.423563 2.9819412 0
12.440228 2.4944127 2.9819369 0
11.514225 -0.27780062 2.9821064 0
11.515603 -0.21224611 2.9821026 0
11.517385 0.049988993 2.9820864 0
11.516899 0.1155554 2.9820824 0
11.516036 0.18111204 2.9820786 0
11.514806 0.24666868 2.9820745 0
11.513199 0.31220087 2.9820704 0
11.511222 0.377738 2.9820664 0
11.508868 0.44326535 2.9820623 0
11.506143 0.50876832 2.9820585 0
11.503043 0.5742566 2.9820545 0
11.499571 0.6397351 2.9820504 0
11.495732 0.70517939 2.9820464 0
11.491513 0.77060908 2.9820423 0
11.486926 0.8360095 2.9820385 0
11.481965 0.90139037 2.9820344 0
11.476633 0.96673214 2.9820304 0
11.470929 1.0320446 2.9820263 0
11.464852 1.0973278 2.9820223 0
11.458405 1.162572 2.9820185 0
11.451587 1.2277771 2.9820144 0
11.444397 1.292948 2.9820104 0
11.436835 1.35807 2.9820065 0
11.428901 1.423153 2.9820025 0
11.420599 1.4881872 2.9819984 0
11.411926 1.5531726 2.9819946 0
11.402889 1.6181091 2.9819906 0
11.393477 1.682987 2.9819865 0
11.383696 1.7478161 2.9819827 0
11.373545 1.8125916 2.9819787 0
11.36303 1.8773034 2.9819746 0
11.352142 1.9419568 2.9819708 0
11.34089 2.006537 2.9819667 0
11.329272 2.0710633 2.9819629 0
11.31728 2.1355214 2.9819589 0
11.304929 2.1999061 2.9819551 0
11.292207 2.2642224 2.981951 0
10.530946 -0.25407749 2.982105 0
10.53221 -0.19412112 2.9821014 0
10.533845 0.045721564 2.9820867 0
10.533401 0.10568738 2.9820831 0
10.532615 0.16564342 2.9820795 0
10.531489 0.22559947 2.9820757 0
10.530023 0.28554577 2.9820726 0
10.528211 0.34548229 2.9820683 0
10.526064 0.40540904 2.9820647 0
10.523569 0.46532115 2.9820611 0
10.520739 0.52521861 2.9820573 0
10.517569 0.58510143 2.9820538 0
10.514051 0.64495981 2.9820502 0
10.510197 0.70480359 2.9820464 0
10.505999 0.76461804 2.9820428 0
10.501465 0.82441294 2.9820392 0
10.496591 0.88417858 2.9820354 0
10.491372 0.94391489 2.9820318 0
10.485816 1.0036219 2.9820282 0
10.47992 1.0632948 2.9820244 0
10.473684 1.1229334 2.9820213 0
10.467111 1.1825379 2.9820173 0
10.460197 1.2420985 2.9820135 0
10.452943 1.30162 2.9820099 0
10.445352 1.3611072 2.9820063 0
10.437419 1.4205408 2.9820027 0
10.429153 1.4799305 2.9819989 0
10.420547 1.5392714 2.9819953 0
10.411603 1.5985682 2.9819918 0
10.402322 1.6578114 2.9819882 0
10.392707 1.716996 2.9819849 0
10.382747 1.7761267 2.9819808 0
10.372456 1.8351941 2.9819772 0
10.36183 1.8942127 2.9819736 0
10.350864 1.9531629 2.9819701 0
10.339565 2.0120499 2.9819665 0
10.32793 2.070873 2.9819629 0
9.6926003 -0.23385076 2.9821038 0
9.6937628 -0.17866765 2.9821005 0
9.6952753 0.04207911 2.9820869 0
9.6948681 0.097274423 2.9820836 0
9.6941481 0.15245996 2.9820802 0
9.6931105 0.20764062 2.9820769 0
9.691761 0.26281151 2.9820735 0
9.6900949 0.31797752 2.98207 0
9.688117 0.37313867 2.9820666 0
9.6858263 0.42828026 2.9820633 0
9.6832209 0.48341209 2.98206 0
9.6803026 0.53852439 2.9820566 0
9.6770687 0.59361714 2.9820533 0
9.6735191 0.64870018 2.9820499 0
9.6696606 0.703749 2.9820464 0
9.6654844 0.75878316 2.982043 0
9.6609993 0.81379294 2.9820397 0
9.6562014 0.8687734 2.9820364 0
9.6510859 0.92372948 2.982033 0
9.6456604 0.97864646 2.9820297 0
9.6399212 1.0335391 2.9820263 0
9.633873 1.0883974 2.982023 0
9.6275082 1.1432216 2.9820197 0
9.6208324 1.1980067 2.9820163 0
9.6138487 1.2527529 2.982013 0
9.6065512 1.30746 2.9820096 0
9.5989418 1.362123 2.9820063 0
9.5910225 1.4167373 2.982003 0
9.5827913 1.4713124 2.9819996 0
9.5742464 1.5258389 2.9819963 0
9.5653963 1.5803066 2.981993 0
9.5562353 1.6347353 2.9819896 0
9.5467625 1.6891054 2.9819863 0
9.5369854 1.7434218 2.9819829 0
9.5268927 1.7976846 2.9819796 0
9.5164967 1.8518838 2.9819763 0
9.5057869 1.9060292 2.9819729 0
8.9686651 -0.21638468 2.9821029 0
8.9697437 -0.16532312 2.9820995 0
8.9711456 0.038939573 2.9820871 0
8.970768 0.0900089 2.982084 0
8.9700994 0.14107335 2.9820809 0
8.9691429 0.19213292 2.9820778 0
8.9678955 0.24318272 2.9820747 0
8.9663563 0.29423252 2.9820716 0
8.9645262 0.34526768 2.9820683 0
8.9624062 0.39628819 2.9820652 0
8.9599953 0.4473038 2.9820621 0
8.9572935 0.49830478 2.982059 0
8.9543028 0.54928136 2.9820559 0
8.9510202 0.60024816 2.9820528 0
8.9474487 0.65118563 2.9820497 0
8.9435873 0.70211339 2.9820466 0
8.9394379 0.75301182 2.9820435 0
8.9349976 0.80388582 2.9820404 0
8.9302664 0.85473543 2.9820373 0
8.9252472 0.90555573 2.9820342 0
8.9199371 0.95634675 2.9820311 0
8.9143391 1.0071084 2.982028 0
8.9084558 1.0578361 2.9820249 0
8.9022789 1.1085293 2.9820218 0
8.8958149 1.1591885 2.9820187 0
8.88906 1.2098087 2.9820156 0
8.88202 1.2603897 2.9820125 0
8.8746958 1.3109268 2.9820094 0
8.8670807 1.36142 2.9820063 0
8.8591766 1.4118741 2.9820032 0
8.8509846 1.4622842 2.9820001 0
8.8425112 1.5126407 2.981997 0
8.833746 1.5629532 2.9819939 0
8.8246975 1.613212 2.9819908 0
8.8153572 1.663422 2.9819877 0
8.8057423 1.7135684 2.9819846 0
8.7958336 1.7636709 2.9819818 0
8.3366137 -0.2011354 2.9821019 0
8.337616 -0.15367217 2.9820988 0
8.3389215 0.036195524 2.9820874 0
8.3385715 0.083666228 2.9820845 0
8.3379517 0.13112716 2.9820814 0
8.3370628 0.17858809 2.9820786 0
8.3359041 0.22604415 2.9820757 0
8.3344727 0.27349532 2.9820728 0
8.3327732 0.32093671 2.98207 0
8.3308029 0.36835858 2.9820671 0
8.3285646 0.41578045 2.982064 0
8.3260536 0.46318281 2.9820611 0
8.3232737 0.51057053 2.9820583 0
8.3202248 0.55794847 2.9820554 0
8.3169041 0.60529709 2.9820526 0
8.3133154 0.65263104 2.9820497 0
8.3094578 0.69994551 2.9820466 0
8.3053303 0.74723071 2.9820437 0
8.3009357 0.79450119 2.9820409 0
8.2962704 0.84173751 2.982038 0
8.2913351 0.88895428 2.9820352 0
8.2861319 0.9361369 2.9820323 0
8.2806616 0.98328537 2.9820294 0
8.2749205 1.0304093 2.9820266 0
8.2689123 1.0774993 2.9820237 0
8.2626362 1.12455 2.9820209 0
8.2560949 1.1715715 2.9820178 0
8.2492828 1.2185441 2.9820149 0
8.2422056 1.2654827 2.982012 0
8.2348595 1.3123771 2.9820092 0
8.2272463 1.3592327 2.9820063 0
8.2193689 1.4060441 2.9820035 0
8.2112226 1.4528068 2.9820006 0
8.2028131 1.4995304 2.9819977 0
8.1941357 1.5461955 2.9819949 0
8.185194 1.5928117 2.981992 0
8.1759863 1.639384 2.9819891 0
7.7794652 -0.18769325 2.982101 0
7.7804027 -0.14340203 2.9820983 0
7.7816219 0.033773735 2.9820874 0
7.7812963 0.078070603 2.9820848 0
7.7807174 0.12236748 2.9820821 0
7.7798877 0.16665459 2.9820793 0
7.7788072 0.2109368 2.9820766 0
7.7774744 0.25521904 2.982074 0
7.7758861 0.29948661 2.9820712 0
7.7740479 0.34373954 2.9820685 0
7.7719603 0.38799247 2.9820657 0
7.769619 0.43223563 2.9820631 0
7.767025 0.47644949 2.9820604 0
7.7641797 0.52065849 2.9820576 0
7.7610812 0.56484306 2.9820549 0
7.7577353 0.60901785 2.9820523 0
7.7541356 0.65316826 2.9820495 0
7.7502842 0.69729912 2.9820468 0
7.7461829 0.74140555 2.9820442 0
7.7418308 0.7854827 2.9820416 0
7.7372241 0.8295452 2.9820387 0
7.7323718 0.87357348 2.9820361 0
7.7272654 0.91757256 2.9820335 0
7.721909 0.96154714 2.9820306 0
7.7163033 1.0054926 2.982028 0
7.7104478 1.0493939 2.9820254 0
7.7043419 1.0932708 2.9820228 0
7.697988 1.1371087 2.9820199 0
7.6913815 1.1809124 2.9820173 0
7.6845274 1.2246771 2.9820147 0
7.6774268 1.2683978 2.982012 0
7.6700745 1.3120794 2.9820092 0
7.6624732 1.3557171 2.9820065 0
7.654624 1.3993157 2.9820039 0
7.6465306 1.4428655 2.9820013 0
7.638186 1.4863665 2.9819987 0
7.6295919 1.5298235 2.9819961 0
7.2841759 -0.1757434 2.9821002 0
7.2850523 -0.13427216 2.9820976 0
7.2861948 0.031625371 2.9820876 0
7.2858911 0.073104858 2.982085 0
7.2853513 0.11457459 2.9820826 0
7.284574 0.1560443 2.98208 0
7.2835631 0.19750427 2.9820774 0
7.2823157 0.23896423 2.982075 0
7.2808299 0.28041932 2.9820724 0
7.2791085 0.32185975 2.9820697 0
7.2771521 0.3632904 2.9820673 0
7.2749596 0.40471131 2.9820647 0
7.2725329 0.44611266 2.9820623 0
7.2698693 0.48750916 2.9820597 0
7.2669678 0.52888119 2.9820571 0
7.2638364 0.57024348 2.9820547 0
7.2604651 0.61158139 2.9820521 0
7.2568603 0.65289974 2.9820497 0
7.2530198 0.69420344 2.9820471 0
7.2489429 0.73547298 2.9820445 0
7.2446346 0.77672786 2.9820421 0
7.2400875 0.81795835 2.9820395 0
7.2353086 0.85915464 2.9820371 0
7.2302942 0.90033138 2.9820344 0
7.2250462 0.94147396 2.9820318 0
7.2195654 0.98258233 2.9820294 0
7.2138453 1.0236664 2.9820268 0
7.2078967 1.0647161 2.9820244 0
7.2017126 1.1057268 2.9820218 0
7.1952963 1.1467084 2.9820194 0
7.1886449 1.1876458 2.9820168 0
7.1817627 1.2285442 2.9820144 0
7.1746469 1.2694085 2.9820118 0
7.1672974 1.3102288 2.9820094 0
7.1597166 1.3510101 2.9820068 0
7.1519041 1.3917376 2.9820044 0
7.1438584 1.4324261 2.982002 0
6.8405614 -0.16504036 2.9820995 0
6.841383 -0.12609489 2.9820971 0
6.8424582 0.029696727 2.9820876 0
6.8421726 0.068651803 2.9820852 0
6.8416662 0.10759223 2.9820828 0
6.8409362 0.14654243 2.9820805 0
6.8399863 0.18547797 2.9820781 0
6.8388157 0.22441351 2.9820757 0
6.8374181 0.26334417 2.9820733 0
6.8358045 0.3022553 2.9820709 0
6.8339682 0.34116644 2.9820688 0
6.8319116 0.38006294 2.9820664 0
6.8296289 0.41894963 2.982064 0
6.8271289 0.45782173 2.9820616 0
6.8244076 0.49667424 2.9820592 0
6.8214636 0.53551698 2.9820569 0
6.8182993 0.57433534 2.9820545 0
6.8149142 0.61313909 2.9820521 0
6.8113084 0.65192324 2.9820497 0
6.8074818 0.69068301 2.9820473 0
6.8034339 0.72942811 2.9820449 0
6.7991638 0.76814401 2.9820426 0
6.7946777 0.80683053 2.9820402 0
6.789968 0.84549749 2.9820378 0
6.7850399 0.88413519 2.9820354 0
6.7798901 0.92274851 2.982033 0
6.7745237 0.96132761 2.9820306 0
6.7689352 0.99986762 2.9820282 0
6.7631297 1.0383881 2.9820261 0
6.757102 1.0768696 2.9820237 0
6.7508578 1.1153169 2.9820213 0
6.7443919 1.153725 2.9820189 0
6.7377124 1.1920991 2.9820166 0
6.7308116 1.2304341 2.9820142 0
6.7236924 1.2687299 2.982012 0
6.7163572 1.3069819 2.9820096 0
6.7088013 1.3451948 2.9820073 0
6.4405441 -0.15538926 2.9820991 0
6.4413195 -0.11872103 2.9820969 0
6.4423351 0.027963389 2.9820879 0
6.4420652 0.06463331 2.9820855 0
6.4415894 0.10130323 2.9820833 0
6.4409018 0.13797314 2.9820812 0
6.4400082 0.17463331 2.9820788 0
6.4389038 0.21128857 2.9820766 0
6.4375925 0.24793896 2.9820743 0
6.4360714 0.2845796 2.9820721 0
6.4343433 0.32121533 2.98207 0
6.4324045 0.35783643 2.9820676 0
6.4302588 0.39444774 2.9820654 0
6.4279041 0.43104443 2.9820631 0
6.4253407 0.46763134 2.9820609 0
6.4225707 0.50419867 2.9820588 0
6.419591 0.54075146 2.9820564 0
6.4164047 0.57728463 2.9820542 0
6.4130087 0.61380321 2.9820521 0
6.4094067 0.65029734 2.9820497 0
6.4055967 0.68677199 2.9820476 0
6.4015784 0.72322708 2.9820452 0
6.3973522 0.75965285 2.982043 0
6.392921 0.79605913 2.9820409 0
6.3882813 0.83243603 2.9820385 0
6.3834324 0.8687886 2.9820364 0
6.3783789 0.90511185 2.9820342 0
6.3731198 0.94140577 2.9820318 0
6.3676524 0.97767043 2.9820297 0
6.3619785 1.0139009 2.9820275 0
6.3560987 1.0500971 2.9820254 0
6.3500147 1.0862641 2.982023 0
6.3437228 1.1223872 2.9820209 0
6.3372264 1.1584858 2.9820187 0
6.3305211 1.1945405 2.9820166 0
6.3236156 1.2305561 2.9820142 0
6.316504 1.2665327 2.982012 0
6.077651 -0.14663389 2.9820986 0
6.0783825 -0.11203182 2.9820964 0
6.0793405 0.026381411 2.9820879 0
6.0790882 0.060990784 2.9820857 0
6.0786376 0.095595278 2.9820838 0
6.077992 0.13019487 2.9820817 0
6.077147 0.16479449 2.9820795 0
6.076107 0.19938433 2.9820774 0
6.0748682 0.23396929 2.9820752 0
6.0734348 0.2685445 2.9820731 0
6.0718017 0.3031148 2.9820709 0
6.0699754 0.33767536 2.9820688 0
6.0679493 0.37222126 2.9820669 0
6.0657263 0.40676227 2.9820647 0
6.0633092 0.44127887 2.9820626 0
6.0606942 0.4757857 2.9820604 0
6.0578833 0.51028275 2.9820583 0
6.0548768 0.5447554 2.9820561 0
6.0516734 0.57921827 2.982054 0
6.048275 0.61365676 2.9820521 0
6.0446763 0.6480757 2.9820499 0
6.0408874 0.68247998 2.9820478 0
6.0368991 0.7168501 2.9820457 0
6.0327148 0.75120556 2.9820435 0
6.0283384 0.78553665 2.9820414 0
6.0237632 0.81983352 2.9820395 0
6.0189962 0.85411572 2.9820373 0
6.0140319 0.88836378 2.9820352 0
6.008872 0.92258251 2.982033 0
6.0035181 0.95677203 2.9820311 0
5.9979734 0.99092734 2.982029 0
5.992229 1.0250582 2.9820268 0
5.9862924 1.05915 2.9820247 0
5.9801636 1.0932125 2.9820228 0
5.9738388 1.1272359 2.9820206 0
5.967319 1.1612203 2.9820185 0
5.960608 1.1951754 2.9820163 0
5.7466221 -0.13864723 2.9820981 0
5.7473145 -0.10592978 2.982096 0
5.7482224 0.024945915 2.9820881 0
5.7479835 0.057670522 2.9820859 0
5.7475572 0.09039025 2.982084 0
5.7469444 0.12310509 2.9820819 0
5.7461486 0.15581505 2.98208 0
5.7451634 0.18852501 2.9820781 0
5.7439942 0.22123009 2.9820759 0
5.7426367 0.2539205 2.982074 0
5.741096 0.28660604 2.9820721 0
5.7393675 0.3192867 2.98207 0
5.7374535 0.35194784 2.9820681 0
5.7353516 0.38460898 2.9820659 0
5.7330651 0.41724569 2.982064 0
5.7305942 0.44987753 2.9820621 0
5.7279358 0.48248982 2.98206 0
5.7250938 0.51508749 2.982058 0
5.7220631 0.54767048 2.9820561 0
5.7188487 0.5802291 2.982054 0
5.7154503 0.61277789 2.9820521 0
5.7118664 0.64530236 2.9820499 0
5.708097 0.67780232 2.982048 0
5.7041416 0.71029258 2.9820461 0
5.6999998 0.74274862 2.982044 0
5.6956787 0.77518517 2.9820421 0
5.6911693 0.80759722 2.9820402 0
5.6864743 0.83997518 2.9820383 0
5.6815968 0.87233359 2.9820361 0
5.6765366 0.90465778 2.9820342 0
5.6712914 0.93696249 2.9820323 0
5.665863 0.96922809 2.9820302 0
5.6602478 1.0014645 2.9820282 0
5.6544518 1.0336666 2.9820263 0
5.6484728 1.0658394 2.9820244 0
5.6423097 1.0979732 2.9820223 0
5.6359644 1.1300728 2.9820204 0
5.4431443 -0.13132541 2.9820976 0
5.4438 -0.10033572 2.9820957 0
5.4446607 0.023632482 2.9820881 0
5.4444323 0.054628577 2.9820862 0
5.4440293 0.085614905 2.9820843 0
5.4434519 0.11660611 2.9820824 0
5.4426966 0.14758755 2.9820805 0
5.4417639 0.178569 2.9820786 0
5.4406567 0.20954557 2.9820766 0
5.4393725 0.24051236 2.9820747 0
5.437911 0.27147427 2.9820728 0
5.4362731 0.30242643 2.9820709 0
5.4344616 0.33335903 2.9820693 0
5.4324732 0.36429164 2.9820673 0
5.430305 0.39520961 2.9820654 0
5.4279652 0.42611784 2.9820635 0
5.4254479 0.45701137 2.9820616 0
5.4227576 0.48788539 2.9820597 0
5.4198866 0.51874477 2.9820578 0
5.416842 0.54958951 2.9820559 0
5.4136229 0.58041471 2.982054 0
5.4102283 0.61122525 2.9820521 0
5.4066563 0.64201134 2.9820502 0
5.4029112 0.67277795 2.9820483 0
5.3989892 0.70352507 2.9820466 0
5.394896 0.73424768 2.9820447 0
5.3906236 0.76494592 2.9820428 0
5.386179 0.7956149 2.9820409 0
5.3815589 0.82626921 2.982039 0
5.3767653 0.85688442 2.9820371 0
5.3717966 0.88748014 2.9820352 0
5.3666539 0.91804653 2.9820333 0
5.3613377 0.94857877 2.9820316 0
5.3558469 0.97908169 2.9820297 0
5.350183 1.0095553 2.9820278 0
5.3443456 1.0399899 2.9820259 0
5.3383374 1.0704001 2.982024 0
5.1636386 -0.12458189 2.9820971 0
5.1642628 -0.095183544 2.9820952 0
5.1650767 0.022416705 2.9820881 0
5.1648622 0.051816117 2.9820864 0
5.1644812 0.081220418 2.9820845 0
5.1639318 0.11061495 2.9820828 0
5.1632166 0.14000948 2.9820809 0
5.1623316 0.16939913 2.9820793 0
5.1612816 0.19878389 2.9820774 0
5.1600633 0.22816376 2.9820757 0
5.1586752 0.25752899 2.9820738 0
5.1571226 0.28689423 2.9820719 0
5.1554041 0.31624481 2.9820702 0
5.1535177 0.34558561 2.9820683 0
5.1514635 0.37491667 2.9820666 0
5.1492429 0.40423796 2.9820647 0
5.1468554 0.43354461 2.9820631 0
5.1443005 0.46283171 2.9820611 0
5.1415806 0.49210906 2.9820595 0
5.1386914 0.52136689 2.9820576 0
5.1356373 0.55061495 2.9820559 0
5.1324158 0.57983857 2.982054 0
5.1290293 0.6090427 2.9820523 0
5.1254773 0.63823211 2.9820504 0
5.1217566 0.66740203 2.9820487 0
5.1178708 0.69654268 2.9820468 0
5.113822 0.72566378 2.9820452 0
5.1096029 0.75476044 2.9820433 0
5.1052232 0.78383762 2.9820416 0
5.1006737 0.81289035 2.9820397 0
5.0959606 0.84190887 2.982038 0
5.0910816 0.87090302 2.9820364 0
5.0860386 0.89986789 2.9820344 0
5.0808311 0.92880827 2.9820328 0
5.0754576 0.95771456 2.9820309 0
5.069922 0.98659152 2.9820292 0
5.0642209 1.0154343 2.9820275 0
