# .PCD v0.7 - Point Cloud Data file format
VERSION 0.7
FIELDS x y z intensity
SIZE 4 4 4 4
TYPE F F F F
COUNT 1 1 1 1
WIDTH 1472
HEIGHT 1
VIEWPOINT 0 0 0 1 0 0 0
POINTS 1472
DATA ascii
25.389236 48.499722 -0.92471844 0
25.034763 48.499722 -0.92195731 0
24.682383 48.499722 -0.91924196 0
24.332066 48.499725 -0.91657335 0
23.98378 48.499714 -0.91395074 0
23.637461 48.499729 -0.91137248 0
23.312578 48.540359 -0.9096002 0
23.0439 48.696938 -0.91003466 0
22.609945 48.499729 -0.90390307 0
22.271147 48.499729 -0.90149957 0
21.934126 48.499725 -0.89913875 0
21.598854 48.499729 -0.89681989 0
21.265287 48.499729 -0.89454275 0
20.933409 48.499725 -0.89230639 0
20.603176 48.499725 -0.89011031 0
20.274561 48.499725 -0.88795453 0
19.947515 48.499718 -0.88583857 0
19.622015 48.499725 -0.88376218 0
19.298019 48.499729 -0.88172418 0
18.975513 48.499725 -0.87972456 0
18.654455 48.499725 -0.87776285 0
18.334803 48.499725 -0.87583905 0
18.016548 48.499725 -0.87395245 0
17.699652 48.499729 -0.87210327 0
17.38409 48.499718 -0.87028986 0
17.069824 48.499718 -0.86851317 0
16.756813 48.499725 -0.86677247 0
16.445053 48.499729 -0.86506635 0
16.13451 48.499722 -0.86339647 0
15.825156 48.499729 -0.86176139 0
15.516953 48.499722 -0.86016041 0
15.209908 48.499733 -0.85859376 0
14.903936 48.499729 -0.85706168 0
14.599056 48.499729 -0.85556322 0
14.29523 48.499722 -0.8540979 0
13.992433 48.499722 -0.85266596 0
13.690655 48.499729 -0.85126692 0
13.389834 48.499733 -0.84990054 0
13.14559 48.705776 -0.85217196 0
13.100007 49.671204 -0.86773032 0
13.100006 50.856159 -0.88709974 0
13.100006 52.095253 -0.90738291 0
13.100007 53.392292 -0.9286465 0
13.100008 54.75172 -0.95096409 0
13.100008 56.178032 -0.97441185 0
13.100008 57.676628 -0.99908185 0
13.100007 59.25309 -1.0250663 0
13.100009 60.913868 -1.0524756 0
13.100009 62.665844 -1.0814261 0
13.100009 64.517143 -1.1120553 0
13.100009 66.476181 -1.1445043 0
-16.899996 37.732628 -0.69838488 0
-16.899994 37.158009 -0.68953878 0
-16.899994 36.597755 -0.68093503 0
-16.899994 36.051311 -0.672566 0
-16.899994 35.518124 -0.66442192 0
-16.899994 34.997646 -0.65649384 0
-16.899994 34.489441 -0.64877427 0
-16.899994 33.993015 -0.6412549 0
-16.899994 33.507961 -0.63392848 0
-16.899994 33.033859 -0.62678814 0
-16.899994 32.570301 -0.61982751 0
-16.899994 32.116917 -0.61303943 0
-16.899996 31.67333 -0.60641861 0
-16.899996 31.239214 -0.59995854 0
-16.899996 30.814224 -0.59365475 0
-16.899996 30.398052 -0.58750075 0
-16.899996 29.990427 -0.58149219 0
-16.899996 29.591051 -0.57562411 0
-16.899996 29.199627 -0.56989223 0
-16.899996 28.815893 -0.56429166 0
-17.016718 28.636061 -0.56267822 0
-16.899996 28.070591 -0.55346859 0
-16.899996 27.708517 -0.54823792 0
-16.899996 27.353247 -0.54312336 0
-16.899996 27.004499 -0.53812051 0
-16.899996 26.662134 -0.53322697 0
-16.899996 26.325911 -0.52843899 0
-16.899996 25.995668 -0.52375317 0
-16.899996 25.671215 -0.51916665 0
-16.899996 25.352377 -0.51467705 0
-16.899996 25.039013 -0.51028103 0
-16.899996 24.730932 -0.5059756 0
-16.899996 24.428015 -0.50175923 0
-16.899996 24.130066 -0.49762902 0
-16.899996 23.837004 -0.49358207 0
-16.899996 23.548634 -0.48961622 0
-16.899996 23.264868 -0.48573026 0
-16.899996 22.985558 -0.48192114 0
-16.899996 22.710587 -0.47818667 0
-16.899996 22.439831 -0.47452539 0
-16.899996 22.17318 -0.47093517 0
-16.899996 21.910528 -0.46741459 0
-16.899996 21.651764 -0.46396077 0
-16.899996 21.396801 -0.46057346 0
-16.899996 21.145512 -0.45724979 0
-16.899996 20.897821 -0.45398879 0
-16.899996 20.653625 -0.45078906 0
-16.899996 20.412836 -0.44764867 0
-16.899996 20.175381 -0.44456667 0
-16.899996 19.941164 -0.44154087 0
-16.899996 19.710098 -0.4385708 0
-16.899996 19.482111 -0.43565434 0
-16.899996 19.257147 -0.43279102 0
-16.899998 19.035101 -0.42997912 0
-16.899998 18.815924 -0.42721722 0
-16.973074 18.67993 -0.42634034 0
-17.075615 18.576899 -0.42622364 0
-17.202139 18.499762 -0.42671794 0
-17.401688 18.499762 -0.42902035 0
-17.603416 18.499762 -0.43136233 0
-17.807358 18.499762 -0.43374461 0
32.585003 48.499798 0.32896727 0
32.181522 48.499798 0.3277058 0
31.781126 48.499798 0.32646483 0
31.383736 48.499798 0.32524413 0
30.989275 48.499798 0.32404274 0
30.597725 48.499798 0.32286114 0
30.208996 48.499798 0.32169861 0
29.823051 48.49979 0.32055515 0
29.439817 48.499798 0.31943029 0
29.05925 48.499798 0.31832355 0
28.681316 48.499798 0.31723541 0
28.305929 48.499798 0.31616467 0
27.93306 48.499798 0.31511182 0
27.562643 48.499798 0.31407613 0
27.194656 48.499798 0.3130576 0
26.829016 48.499798 0.31205601 0
26.465729 48.499802 0.3110711 0
26.1047 48.499798 0.3101024 0
25.745892 48.499798 0.3091504 0
25.38928 48.499798 0.30821389 0
25.034801 48.499802 0.30729336 0
24.682425 48.499798 0.30638856 0
24.332108 48.499798 0.30549902 0
23.983818 48.49979 0.3046245 0
23.637495 48.499802 0.30376548 0
23.312605 48.540401 0.30317456 0
23.043955 48.697067 0.30331972 0
22.609972 48.49979 0.30127567 0
22.271179 48.499798 0.30047482 0
21.934162 48.499798 0.29968804 0
21.598888 48.499798 0.29891509 0
21.265327 48.49979 0.29815596 0
20.933447 48.499798 0.29741043 0
20.603212 48.499798 0.29667872 0
20.274586 48.49979 0.29595989 0
19.947548 48.499798 0.29525489 0
19.622042 48.499798 0.29456252 0
19.298054 48.49979 0.29388326 0
18.975542 48.499798 0.29321688 0
18.654474 48.499798 0.29256314 0
18.334837 48.499798 0.29192179 0
18.016579 48.499798 0.29129332 0
17.699688 48.499798 0.29067653 0
17.384115 48.499798 0.29007214 0
17.069845 48.49979 0.28948015 0
16.756838 48.49979 0.28889984 0
16.445082 48.499798 0.28833145 0
16.134539 48.499802 0.28777474 0
15.825183 48.499798 0.28722972 0
15.516987 48.499798 0.28669614 0
15.209917 48.499798 0.28617424 0
14.903952 48.499798 0.28566331 0
14.599068 48.499798 0.28516382 0
14.295249 48.499798 0.28467554 0
13.992454 48.499798 0.28419846 0
13.690664 48.499798 0.28373188 0
13.389851 48.499798 0.2832765 0
13.145598 48.705841 0.28403351 0
13.100007 49.671246 0.28921893 0
13.100007 50.85614 0.29567459 0
13.100007 52.09523 0.30243519 0
13.100007 53.392281 0.30952248 0
13.100008 54.751736 0.3169612 0
13.100007 56.178062 0.32477656 0
13.100008 57.676662 0.33299902 0
13.100008 59.25312 0.34165969 0
13.100009 60.913933 0.35079587 0
13.100009 62.665844 0.36044475 0
13.100009 64.517143 0.37065336 0
13.100009 66.476234 0.38146907 0
-16.899996 37.732597 0.23277508 0
-16.899994 37.158001 0.22982666 0
-16.899994 36.597748 0.22695914 0
-16.899994 36.051308 0.22416969 0
-16.899994 35.518112 0.22145501 0
-16.899994 34.997662 0.21881273 0
-16.899994 34.489445 0.21623959 0
-16.899994 33.993023 0.21373342 0
-16.899994 33.50795 0.2112914 0
-16.899994 33.033867 0.20891166 0
-16.899994 32.570293 0.20659137 0
-16.899994 32.116924 0.20432933 0
-16.899996 31.673334 0.20212248 0
-16.899996 31.239223 0.19996917 0
-16.899996 30.814226 0.19786824 0
-16.899996 30.398066 0.19581683 0
-16.899996 29.990435 0.19381426 0
-16.899996 29.591049 0.19185862 0
-16.899996 29.199623 0.1899478 0
-16.899996 28.815891 0.1880811 0
-17.016737 28.636089 0.18754326 0
-16.899996 28.070589 0.18447363 0
-16.899996 27.708517 0.18273078 0
-16.899996 27.353239 0.18102564 0
-16.899996 27.004509 0.17935826 0
-16.899996 26.662128 0.17772721 0
-16.899996 26.325899 0.17613129 0
-16.899996 25.995668 0.17456959 0
-16.899996 25.671204 0.17304091 0
-16.899996 25.352375 0.17154431 0
-16.899996 25.039009 0.17007908 0
-16.899996 24.730921 0.16864406 0
-16.899996 24.428011 0.16723923 0
-16.899996 24.130075 0.16586223 0
-16.899996 23.837008 0.16451354 0
-16.899996 23.548634 0.16319151 0
-16.899996 23.264866 0.16189662 0
-16.899996 22.985559 0.16062671 0
-16.899996 22.710579 0.1593823 0
-16.899996 22.439829 0.15816171 0
-16.899996 22.17318 0.15696518 0
-16.899996 21.910528 0.15579179 0
-16.899996 21.651766 0.15464056 0
-16.899996 21.39679 0.15351175 0
-16.899996 21.145508 0.15240392 0
-16.899996 20.89782 0.15131687 0
-16.899996 20.653618 0.15025035 0
-16.899996 20.41284 0.14920363 0
-16.899996 20.175383 0.14817627 0
-16.899996 19.941168 0.14716803 0
-16.899996 19.710104 0.14617769 0
-16.899996 19.482115 0.14520602 0
-16.899996 19.257145 0.14425133 0
-16.899998 19.035101 0.14331433 0
-16.899998 18.815916 0.14239386 0
-16.973091 18.679947 0.14210129 0
-17.075634 18.576914 0.14206277 0
-17.20216 18.499796 0.14222771 0
-17.401726 18.499796 0.14299494 0
-17.603451 18.499796 0.14377552 0
-17.807388 18.499796 0.14456969 0
32.58506 48.499882 1.6452565 0
32.181583 48.499878 1.6389478 0
31.781193 48.499878 1.6327413 0
31.383776 48.499882 1.626635 0
30.98934 48.499878 1.6206278 0
30.597773 48.499878 1.614718 0
30.209049 48.499878 1.6089046 0
29.823088 48.499878 1.6031851 0
29.439865 48.499878 1.5975597 0
29.059299 48.499874 1.5920254 0
28.681353 48.499866 1.5865818 0
28.305973 48.499874 1.5812277 0
27.933088 48.499874 1.5759612 0
27.5627 48.499874 1.5707819 0
27.194695 48.499874 1.565688 0
26.82906 48.499866 1.5606788 0
26.465757 48.499874 1.5557526 0
26.104729 48.499874 1.5509087 0
25.745928 48.499874 1.546146 0
25.389317 48.499874 1.541463 0
25.034842 48.499866 1.5368599 0
24.682463 48.499878 1.5323339 0
24.332136 48.499874 1.5278851 0
23.983845 48.499874 1.5235126 0
23.637527 48.499874 1.5192149 0
23.312626 48.540455 1.5162592 0
23.044035 48.697216 1.516989 0
22.61001 48.49987 1.5067636 0
22.271214 48.49987 1.5027575 0
21.934189 48.499874 1.4988223 0
21.598915 48.49987 1.4949566 0
21.265358 48.49987 1.4911604 0
20.933472 48.49987 1.4874321 0
20.603249 48.499863 1.483772 0
20.274628 48.499874 1.4801787 0
19.947575 48.49987 1.4766513 0
19.622078 48.49987 1.4731897 0
19.298084 48.49987 1.4697921 0
18.975578 48.49987 1.4664592 0
18.654512 48.49987 1.4631892 0
18.334866 48.49987 1.4599823 0
18.016603 48.499863 1.4568375 0
17.699709 48.49987 1.4537544 0
17.38414 48.499874 1.4507322 0
17.06987 48.49987 1.4477704 0
16.756855 48.49987 1.4448681 0
16.445105 48.49987 1.4420251 0
16.134563 48.499866 1.4392408 0
15.825208 48.499866 1.4365152 0
15.517006 48.499866 1.4338467 0
15.209939 48.499866 1.4312357 0
14.903975 48.499866 1.4286816 0
14.599094 48.49987 1.4261835 0
14.295271 48.499866 1.4237409 0
13.992476 48.499866 1.4213543 0
13.690691 48.499859 1.4190217 0
13.389876 48.499866 1.4167444 0
13.145618 48.705887 1.4205295 0
13.100006 49.671215 1.4464612 0
13.100007 50.856148 1.4787481 0
13.100007 52.095253 1.5125605 0
13.100007 53.392303 1.5480061 0
13.100008 54.751709 1.5852076 0
13.100008 56.178078 1.6242954 0
13.100008 57.676659 1.6654174 0
13.100008 59.253101 1.7087326 0
13.100008 60.913906 1.7544237 0
13.100009 62.665886 1.8026828 0
13.100009 64.517075 1.853736 0
13.100009 66.476265 1.9078312 0
-16.899994 37.732597 1.1641716 0
-16.899994 37.158012 1.1494247 0
-16.899994 36.59774 1.1350828 0
-16.899994 36.051308 1.1211327 0
-16.899994 35.518108 1.1075568 0
-16.899994 34.99765 1.0943415 0
-16.899994 34.489452 1.0814731 0
-16.899994 33.993034 1.0689389 0
-16.899994 33.507965 1.0567257 0
-16.899994 33.033878 1.0448239 0
-16.899994 32.570293 1.0332201 0
-16.899994 32.116924 1.0219058 0
-16.899996 31.673323 1.0108685 0
-16.899996 31.239222 1.0001006 0
-16.899996 30.814222 0.98959124 0
-16.899996 30.398054 0.9793331 0
-16.899996 29.990433 0.96931767 0
-16.899996 29.591036 0.95953572 0
-16.899996 29.199619 0.94998091 0
-16.899996 28.815905 0.9406448 0
-17.01675 28.63612 0.93795717 0
-16.899996 28.070583 0.92260325 0
-16.899996 27.708515 0.91388416 0
-16.899996 27.353247 0.90535879 0
-16.899996 27.004494 0.89701939 0
-16.899996 26.662121 0.88886178 0
-16.899996 26.325912 0.88088042 0
-16.899996 25.995665 0.87306941 0
-16.899996 25.671202 0.86542398 0
-16.899996 25.352375 0.85793984 0
-16.899996 25.039007 0.85061193 0
-16.899996 24.730921 0.84343529 0
-16.899996 24.428007 0.83640689 0
-16.899996 24.130072 0.82952154 0
-16.899996 23.836996 0.82277566 0
-16.899996 23.548635 0.81616539 0
-16.899996 23.264858 0.80968702 0
-16.899996 22.985556 0.8033374 0
-16.899996 22.710577 0.79711229 0
-16.899996 22.439835 0.79100949 0
-16.899996 22.17318 0.78502482 0
-16.899996 21.91053 0.77915561 0
-16.899996 21.651764 0.773399 0
-16.899996 21.396791 0.76775229 0
-16.899996 21.14551 0.7622124 0
-16.899996 20.897821 0.75677681 0
-16.899996 20.653622 0.75144255 0
-16.899996 20.412832 0.74620736 0
-16.899996 20.175383 0.74106985 0
-16.899996 19.941166 0.73602641 0
-16.899996 19.710096 0.73107451 0
-16.899996 19.482115 0.72621328 0
-16.899996 19.257149 0.72144008 0
-16.899998 19.035103 0.71675277 0
-16.899998 18.81592 0.71214944 0
-16.973106 18.679964 0.71068859 0
-17.075645 18.576937 0.71049488 0
-17.202196 18.49983 0.71131974 0
-17.401751 18.49983 0.71515805 0
-17.603477 18.49983 0.71906143 0
-17.807425 18.499832 0.7230323 0
36.300896 46.161251 2.9781907 0
36.034538 46.369156 2.9781778 0
35.766998 46.575535 2.9781651 0
35.49826 46.780357 2.9781528 0
35.228355 46.98365 2.9781404 0
34.957302 47.185368 2.978128 0
34.685074 47.385532 2.9781158 0
34.411705 47.584126 2.9781036 0
34.137203 47.781143 2.9780915 0
33.86158 47.976589 2.9780796 0
33.584843 48.170425 2.9780676 0
33.306969 48.362682 2.978056 0
33.028034 48.553349 2.9780443 0
32.747986 48.742393 2.9780328 0
32.33353 48.728874 2.9657907 0
31.91436 48.703121 2.9529979 0
31.498922 48.677818 2.9404254 0
31.087143 48.65295 2.9280705 0
30.678915 48.628502 2.9159267 0
30.2742 48.604473 2.9039931 0
29.872889 48.580868 2.8922641 0
29.474939 48.557659 2.8807375 0
29.080256 48.534851 2.8694105 0
28.688786 48.512432 2.858279 0
28.306023 48.499954 2.8478997 0
27.93314 48.49995 2.8384149 0
27.562742 48.49995 2.8290868 0
27.194736 48.49995 2.8199124 0
26.829105 48.49995 2.81089 0
26.465797 48.49995 2.8020177 0
26.104782 48.499943 2.793294 0
25.745974 48.49995 2.7847159 0
25.389353 48.49995 2.7762816 0
25.034889 48.499947 2.7679904 0
24.682507 48.499939 2.7598391 0
24.33218 48.499947 2.7518268 0
23.983885 48.499947 2.7439506 0
23.637575 48.499939 2.7362108 0
23.312656 48.540501 2.7308855 0
23.0441 48.697361 2.7322054 0
22.610041 48.499939 2.7137854 0
22.271248 48.499947 2.7065701 0
21.934233 48.499935 2.699482 0
21.598948 48.499943 2.6925199 0
21.265388 48.499935 2.6856833 0
20.933506 48.499943 2.6789687 0
20.603283 48.499943 2.6723764 0
20.27466 48.499943 2.665904 0
19.947607 48.499943 2.6595509 0
19.622108 48.499943 2.653316 0
19.298113 48.499947 2.6471975 0
18.975607 48.499943 2.6411939 0
18.654535 48.499947 2.6353052 0
18.334894 48.499939 2.629529 0
18.01663 48.499943 2.6238654 0
17.699732 48.499931 2.6183114 0
17.384172 48.499939 2.6128685 0
17.069895 48.499939 2.6075342 0
16.756887 48.499939 2.6023068 0
16.445129 48.499931 2.5971868 0
16.134577 48.499939 2.5921724 0
15.825226 48.499939 2.5872624 0
15.517017 48.499939 2.5824573 0
15.209966 48.499943 2.5777545 0
14.903997 48.499939 2.5731542 0
14.599103 48.499939 2.5686543 0
14.295283 48.499939 2.5642557 0
13.992493 48.499939 2.5599566 0
13.690703 48.499935 2.5557561 0
13.389885 48.499935 2.5516534 0
13.14563 48.705952 2.558471 0
13.100007 49.67123 2.6051736 0
13.100007 50.856144 2.6633224 0
13.100007 52.095268 2.7242227 0
13.100007 53.392307 2.7880604 0
13.112689 54.804714 2.8578274 0
13.3331 57.177666 2.9775167 0
13.003849 57.253349 2.9775121 0
12.674203 57.327129 2.9775076 0
12.344104 57.399025 2.9775031 0
12.013633 57.469025 2.9774988 0
11.682744 57.537117 2.9774947 0
11.351481 57.603302 2.9774907 0
11.019835 57.667587 2.9774866 0
10.687828 57.729961 2.9774828 0
10.355474 57.790428 2.9774792 0
10.022767 57.848984 2.9774756 0
9.6897421 57.905628 2.9774721 0
9.3563843 57.960361 2.9774687 0
9.022727 58.013172 2.9774656 0
8.6887655 58.064072 2.9774625 0
8.3545141 58.113041 2.9774594 0
8.01999 58.160099 2.9774566 0
7.685205 58.205235 2.9774537 0
7.3501768 58.24844 2.9774511 0
7.0148935 58.289719 2.9774487 0
6.6793823 58.32906 2.9774463 0
6.3436608 58.366489 2.9774439 0
6.0077162 58.401978 2.9774418 0
5.6715612 58.435532 2.9774396 0
5.335238 58.467163 2.9774377 0
4.9987364 58.496853 2.9774361 0
4.6620765 58.524612 2.9774344 0
4.3252406 58.550442 2.9774327 0
3.9882815 58.574329 2.9774313 0
3.6511879 58.596291 2.9774299 0
3.3139601 58.616291 2.9774287 0
2.9766421 58.634384 2.9774275 0
2.6392128 58.650517 2.9774265 0
2.3017056 58.664711 2.9774258 0
1.9641225 58.676975 2.9774249 0
1.6264688 58.687283 2.9774244 0
1.2887515 58.695671 2.9774239 0
0.95100498 58.702114 2.9774234 0
0.61323154 58.7066 2.9774232 0
0.27543369 58.709141 2.977423 0
-0.062378835 58.709759 2.977423 0
-0.40017664 58.708435 2.977423 0
-0.73797941 58.705158 2.9774232 0
-1.0757284 58.699955 2.9774237 0
-1.4134725 58.692791 2.9774239 0
-1.7511679 58.683701 2.9774246 0
-2.0887997 58.672668 2.9774253 0
-2.4263437 58.659691 2.9774261 0
-2.763829 58.644787 2.977427 0
-3.1012118 58.627914 2.977428 0
-3.4385116 58.609135 2.9774292 0
-3.7756796 58.588417 2.9774303 0
-4.1127405 58.565727 2.9774318 0
-4.4496298 58.54113 2.9774332 0
-4.7864218 58.514587 2.9774349 0
-5.1230187 58.486118 2.9774365 0
-5.4594593 58.455696 2.9774384 0
-5.7957139 58.423363 2.9774406 0
-6.1317978 58.389091 2.9774425 0
-6.4676428 58.35289 2.9774449 0
-6.803297 58.314751 2.977447 0
-7.1387315 58.274685 2.9774497 0
-7.473927 58.232704 2.977452 0
-7.8088584 58.188782 2.9774549 0
-8.1435652 58.142937 2.9774575 0
-8.4779644 58.095188 2.9774606 0
-8.8121204 58.045502 2.9774635 0
-9.1459723 57.993908 2.9774668 0
-9.4795179 57.940395 2.9774699 0
-9.8127451 57.884956 2.9774735 0
-10.14567 57.827591 2.9774768 0
-10.478238 57.768322 2.9774806 0
-10.81047 57.707157 2.9774842 0
-11.142344 57.64407 2.977488 0
-11.473853 57.579075 2.9774921 0
-11.804981 57.512199 2.9774961 0
-12.135714 57.443401 2.9775004 0
-12.466056 57.372692 2.9775047 0
-12.795992 57.30011 2.9775093 0
-13.125494 57.22562 2.9775138 0
-13.454556 57.149239 2.9775183 0
-13.78317 57.070969 2.9775233 0
-14.111354 56.990818 2.9775281 0
-14.439078 56.908772 2.9775331 0
-14.766305 56.824848 2.9775383 0
-15.093038 56.739037 2.9775436 0
-15.419273 56.65136 2.9775488 0
-15.74503 56.56181 2.9775543 0
-16.070234 56.470383 2.97756 0
-16.394926 56.377083 2.9775658 0
-16.71909 56.281921 2.9775715 0
-17.042685 56.184906 2.9775774 0
-17.365705 56.08604 2.9775834 0
-17.688171 55.985306 2.9775896 0
-18.01004 55.882713 2.9775958 0
-18.331337 55.778297 2.9776022 0
-18.652006 55.67202 2.9776087 0
-18.972069 55.563892 2.9776154 0
-19.29151 55.453934 2.977622 0
-19.610308 55.342136 2.9776289 0
-19.928467 55.228523 2.9776359 0
-20.245964 55.113075 2.977643 0
-20.562775 54.9958 2.9776502 0
-20.878933 54.876705 2.9776576 0
-21.194391 54.755798 2.9776649 0
-21.509151 54.633072 2.9776723 0
-21.823212 54.50856 2.97768 0
-22.136528 54.382225 2.9776876 0
-22.449133 54.254089 2.9776955 0
-22.760992 54.124184 2.9777036 0
-23.072083 53.99247 2.9777114 0
-23.382452 53.858963 2.9777198 0
-23.692026 53.72369 2.9777279 0
-16.899994 37.732613 2.0967498 0
-16.899994 37.158009 2.0701895 0
-16.899994 36.597763 2.0443606 0
-16.899994 36.051296 2.019233 0
-16.899994 35.518108 1.9947828 0
-16.899994 34.997631 1.9709802 0
-16.899994 34.489475 1.947806 0
-16.899994 33.993031 1.9252292 0
-16.899994 33.507957 1.9032329 0
-16.899994 33.033863 1.8817964 0
-16.899994 32.570301 1.8608979 0
-16.899994 32.116913 1.8405191 0
-16.899996 31.673334 1.8206408 0
-16.899996 31.239227 1.8012477 0
-16.899996 30.814228 1.7823197 0
-16.899996 30.398075 1.7638448 0
-16.899996 29.990442 1.7458051 0
-16.899996 29.59103 1.728187 0
-16.899996 29.199617 1.7109782 0
-16.899996 28.815891 1.6941634 0
-17.016768 28.63615 1.6893245 0
-16.899996 28.070589 1.6616696 0
-16.899996 27.708519 1.6459658 0
-16.899996 27.353241 1.6306103 0
-16.899996 27.004498 1.6155908 0
-16.899996 26.662121 1.6008987 0
-16.899996 26.325899 1.5865233 0
-16.899996 25.995659 1.5724558 0
-16.899996 25.671209 1.5586864 0
-16.899996 25.352377 1.5452063 0
-16.899996 25.039013 1.5320083 0
-16.899996 24.730928 1.519083 0
-16.899996 24.428015 1.5064244 0
-16.899996 24.130074 1.494023 0
-16.899996 23.837004 1.4818735 0
-16.899996 23.548632 1.4699677 0
-16.899996 23.26486 1.4583 0
-16.899996 22.985554 1.4468637 0
-16.899996 22.710581 1.4356524 0
-16.899996 22.439835 1.4246606 0
-16.899996 22.173187 1.4138819 0
-16.899996 21.91053 1.403311 0
-16.899996 21.651775 1.3929434 0
-16.899996 21.396791 1.382772 0
-16.899996 21.145508 1.3727945 0
-16.899996 20.897829 1.3630058 0
-16.899996 20.653629 1.3533984 0
-16.899996 20.41283 1.3439691 0
-16.899996 20.175386 1.3347158 0
-16.899996 19.941166 1.3256323 0
-16.899996 19.710098 1.3167139 0
-16.899996 19.482109 1.3079576 0
-16.899996 19.257141 1.299361 0
-16.899998 19.035101 1.2909191 0
-16.899998 18.81591 1.2826275 0
-16.973124 18.679985 1.2799985 0
-17.075666 18.57695 1.2796491 0
-17.20223 18.499865 1.281136 0
-17.401787 18.499866 1.2880489 0
-17.603516 18.499866 1.2950802 0
-17.807457 18.499866 1.3022313 0
25.115328 31.937361 2.9790606 0
24.93108 32.081234 2.9790521 0
24.746002 32.224056 2.9790432 0
24.560099 32.365826 2.9790344 0
24.373398 32.506508 2.9790258 0
24.185898 32.646118 2.9790175 0
23.997583 32.784649 2.9790089 0
23.808472 32.922085 2.9790006 0
23.618584 33.058441 2.9789922 0
23.427916 33.193703 2.9789839 0
23.236465 33.32785 2.9789758 0
23.04425 33.460918 2.9789674 0
22.851282 33.592861 2.9789596 0
22.657557 33.723701 2.9789515 0
22.46307 33.853413 2.9789436 0
22.267864 33.982025 2.9789357 0
22.071913 34.109493 2.9789279 0
21.875225 34.235836 2.9789202 0
21.677828 34.361053 2.9789126 0
21.479692 34.485119 2.978905 0
21.280867 34.608051 2.9788973 0
21.081329 34.729843 2.9788899 0
20.881102 34.850483 2.9788826 0
20.680178 34.969967 2.9788752 0
20.478579 35.088295 2.978868 0
20.276299 35.205456 2.9788609 0
20.073345 35.321461 2.9788537 0
19.869726 35.436291 2.9788468 0
19.66544 35.549946 2.9788396 0
19.460526 35.662434 2.978833 0
19.254969 35.773727 2.978826 0
19.048773 35.883854 2.9788194 0
18.841942 35.992767 2.9788127 0
18.634502 36.100513 2.978806 0
18.426432 36.207062 2.9787996 0
18.217754 36.312401 2.9787931 0
18.008486 36.416542 2.9787867 0
17.798618 36.519482 2.9787805 0
17.58815 36.621212 2.9787743 0
17.377108 36.721729 2.9787681 0
17.165491 36.821033 2.9787619 0
16.953316 36.919121 2.978756 0
16.74058 37.01598 2.97875 0
16.527283 37.111622 2.9787443 0
16.313446 37.206024 2.9787385 0
16.099058 37.29921 2.9787328 0
15.884161 37.391151 2.9787271 0
15.66871 37.48185 2.9787216 0
15.452758 37.57132 2.9787161 0
15.2363 37.659546 2.9787107 0
15.019324 37.746532 2.9787054 0
14.801865 37.832256 2.9787002 0
14.583907 37.916721 2.9786949 0
14.365477 37.99995 2.9786899 0
14.146565 38.081921 2.9786849 0
13.927197 38.162609 2.9786799 0
13.70736 38.242058 2.9786751 0
13.487071 38.320236 2.9786704 0
13.266337 38.397137 2.9786656 0
13.045164 38.472771 2.9786611 0
12.823557 38.547138 2.9786563 0
12.601539 38.620228 2.978652 0
12.379093 38.692043 2.9786475 0
12.156248 38.762566 2.9786432 0
11.932994 38.831821 2.9786389 0
11.709345 38.899792 2.9786348 0
11.485312 38.966461 2.9786308 0
11.260901 39.031849 2.9786267 0
11.036121 39.095936 2.9786229 0
10.810963 39.158745 2.9786191 0
10.585462 39.220257 2.9786153 0
10.359608 39.28046 2.9786115 0
10.133405 39.339371 2.9786079 0
9.9068661 39.396988 2.9786043 0
9.6800108 39.453285 2.978601 0
9.4528275 39.508278 2.9785976 0
9.2253475 39.561974 2.9785943 0
8.9975424 39.614365 2.9785912 0
8.7694607 39.665432 2.9785881 0
8.541069 39.715199 2.978585 0
8.3124056 39.763641 2.9785819 0
8.0834618 39.810772 2.978579 0
7.8542614 39.85659 2.9785762 0
7.6247935 39.901096 2.9785736 0
7.3950758 39.944267 2.9785709 0
7.165112 39.986122 2.9785683 0
6.934907 40.026649 2.9785659 0
6.7044883 40.065865 2.9785635 0
6.4738426 40.103745 2.9785612 0
6.2429762 40.140301 2.978559 0
6.0119057 40.175526 2.9785569 0
5.7806349 40.209431 2.9785547 0
5.5491748 40.241989 2.9785528 0
5.3175306 40.273228 2.9785509 0
5.0857129 40.303135 2.978549 0
4.8537292 40.331711 2.9785473 0
4.6215868 40.358948 2.9785457 0
4.3892846 40.384846 2.978544 0
4.1568446 40.409405 2.9785426 0
3.9242575 40.432644 2.9785411 0
3.6915488 40.454529 2.9785397 0
3.4587181 40.475082 2.9785385 0
3.2257762 40.494308 2.9785373 0
2.9927247 40.51218 2.9785361 0
2.759568 40.528713 2.9785352 0
2.5263293 40.543903 2.9785342 0
2.2929919 40.557758 2.9785335 0
2.0595961 40.570271 2.9785326 0
1.8261316 40.58144 2.9785318 0
1.5925988 40.591263 2.9785314 0
1.3590149 40.599758 2.9785309 0
1.1253821 40.606892 2.9785304 0
0.89171022 40.61269 2.9785299 0
0.65801883 40.617146 2.9785297 0
0.42430303 40.620266 2.9785297 0
0.19057254 40.622028 2.9785295 0
-0.043162797 40.622452 2.9785295 0
-0.27688837 40.621532 2.9785295 0
-0.51061398 40.619267 2.9785297 0
-0.74432003 40.615658 2.9785299 0
-0.97801632 40.61071 2.9785302 0
-1.2116638 40.604408 2.9785306 0
-1.445282 40.596779 2.9785311 0
-1.6788367 40.587791 2.9785316 0
-1.9123474 40.577469 2.9785323 0
-2.1457896 40.565811 2.9785328 0
-2.3791735 40.552795 2.9785337 0
-2.6124644 40.538452 2.9785347 0
-2.8456774 40.522766 2.9785357 0
-3.0787928 40.505737 2.9785366 0
-3.3118153 40.487373 2.9785378 0
-3.5447059 40.467651 2.978539 0
-3.7775085 40.446606 2.9785402 0
-4.0101595 40.424217 2.9785416 0
-4.2427034 40.400494 2.978543 0
-4.4750814 40.375431 2.9785445 0
-4.7073326 40.349041 2.9785461 0
-4.9394174 40.321304 2.9785478 0
-5.171351 40.292248 2.9785497 0
-5.4030795 40.261856 2.9785514 0
-5.6346765 40.230122 2.9785535 0
-5.8660583 40.197063 2.9785554 0
-6.0972543 40.162666 2.9785576 0
-6.3282456 40.126953 2.9785597 0
-6.559032 40.089905 2.9785621 0
-6.7896032 40.051533 2.9785643 0
-7.0199447 40.011841 2.9785669 0
-7.2500572 39.970818 2.9785693 0
-7.4799299 39.928482 2.9785719 0
-7.7095542 39.884811 2.9785745 0
-7.9389291 39.839825 2.9785774 0
-8.1680307 39.793526 2.9785802 0
-8.3968792 39.745907 2.9785831 0
-8.6254339 39.696976 2.978586 0
-8.8537197 39.646736 2.9785891 0
-9.0816984 39.595169 2.9785924 0
-9.3093786 39.542297 2.9785955 0
-9.5367613 39.488125 2.9785988 0
-9.7638226 39.432648 2.9786022 0
-9.9905653 39.37587 2.9786057 0
-10.216976 39.317776 2.9786093 0
-10.44305 39.258381 2.9786129 0
-10.668774 39.197689 2.9786167 0
-10.894155 39.135704 2.9786203 0
-11.119164 39.072422 2.9786243 0
-11.343812 39.007851 2.9786282 0
-11.568094 38.941994 2.9786322 0
-11.791991 38.874836 2.9786363 0
-12.015482 38.8064 2.9786406 0
-12.238578 38.736675 2.9786448 0
-12.461287 38.665668 2.9786491 0
-12.683578 38.593399 2.9786537 0
-12.905443 38.519836 2.978658 0
-13.126888 38.444996 2.9786627 0
-13.347899 38.368889 2.9786673 0
-13.568471 38.291512 2.978672 0
-13.788588 38.212864 2.9786768 0
-14.008261 38.132961 2.9786818 0
-14.227455 38.051796 2.9786868 0
-14.4462 37.96936 2.9786918 0
-14.664452 37.885681 2.9786968 0
-14.882225 37.800735 2.9787021 0
-15.099505 37.714558 2.9787073 0
-15.316293 37.62711 2.9787128 0
-15.532567 37.538441 2.978718 0
-15.748334 37.448509 2.9787235 0
-15.963571 37.357349 2.9787292 0
-16.178303 37.264942 2.9787347 0
-16.392467 37.171307 2.9787405 0
-16.6061 37.07645 2.9787464 0
-16.819193 36.980354 2.9787521 0
-17.031744 36.883045 2.9787581 0
-17.100468 36.478951 2.9540198 0
-16.991714 35.710869 2.8996906 0
-16.899994 34.997635 2.8496249 0
-16.899994 34.489449 2.816118 0
-16.899994 33.993046 2.7834804 0
-16.899994 33.50798 2.7516787 0
-16.899994 33.033859 2.7206841 0
-16.899994 32.57029 2.690469 0
-16.899994 32.116913 2.6610055 0
-16.899996 31.673332 2.6322663 0
-16.899996 31.239206 2.6042261 0
-16.899996 30.814251 2.5768638 0
-16.899996 30.398058 2.5501492 0
-16.899996 29.99044 2.5240695 0
-16.899996 29.591051 2.4985981 0
-16.899996 29.199615 2.4737165 0
-16.899996 28.815882 2.4494059 0
-17.016788 28.636177 2.4424119 0
-16.899996 28.070589 2.4024272 0
-16.899996 27.708527 2.3797226 0
-16.899996 27.353239 2.357522 0
-16.899996 27.004494 2.3358066 0
-16.899996 26.662123 2.3145654 0
-16.899996 26.325901 2.2937813 0
-16.899996 25.995665 2.2734423 0
-16.899996 25.671225 2.2535355 0
-16.899996 25.352379 2.234046 0
-16.899996 25.039009 2.2149632 0
-16.899996 24.73093 2.1962767 0
-16.899996 24.428005 2.1779737 0
-16.899996 24.130074 2.1600459 0
-16.899996 23.837008 2.1424799 0
-16.899996 23.548643 2.1252668 0
-16.899996 23.264862 2.1083972 0
-16.899996 22.985548 2.091862 0
-16.899996 22.710575 2.0756528 0
-16.899996 22.439827 2.0597606 0
-16.899996 22.173187 2.0441778 0
-16.899996 21.910524 2.0288939 0
-16.899996 21.651768 2.0139043 0
-16.899996 21.396788 1.9991999 0
-16.899996 21.145512 1.9847742 0
-16.899996 20.897827 1.9706203 0
-16.899996 20.653618 1.9567295 0
-16.899996 20.412834 1.9430989 0
-16.899996 20.175385 1.9297198 0
-16.899996 19.941166 1.9165865 0
-16.899996 19.710102 1.9036936 0
-16.899996 19.482119 1.8910344 0
-16.899996 19.257149 1.8786049 0
-16.899998 19.035105 1.866399 0
-16.899998 18.815916 1.8544117 0
-16.973137 18.680006 1.850612 0
-17.075682 18.576971 1.8501077 0
-17.202267 18.499901 1.8522587 0
-17.401821 18.499901 1.8622532 0
-17.603548 18.499901 1.8724186 0
-17.807493 18.499903 1.8827579 0
19.184387 24.395407 2.9795222 0
19.043657 24.505329 2.9795153 0
18.9023 24.614445 2.9795086 0
18.760319 24.722746 2.9795022 0
18.61771 24.830227 2.9794955 0
18.474499 24.936882 2.9794891 0
18.330669 25.042717 2.9794824 0
18.186235 25.147722 2.9794762 0
18.041193 25.251886 2.9794698 0
17.895565 25.355223 2.9794633 0
17.74934 25.457722 2.9794571 0
17.602533 25.559378 2.9794509 0
17.455135 25.660177 2.9794447 0
17.307167 25.760134 2.9794385 0
17.158625 25.85924 2.9794326 0
17.00952 25.957487 2.9794266 0
16.859842 26.054874 2.9794207 0
16.709623 26.1514 2.9794147 0
16.558834 26.247057 2.9794087 0
16.407511 26.341848 2.979403 0
16.255638 26.435774 2.9793973 0
16.103231 26.52882 2.9793916 0
15.950294 26.620989 2.9793861 0
15.796824 26.712267 2.9793804 0
15.642837 26.802673 2.9793749 0
15.488329 26.892185 2.9793694 0
15.333309 26.980803 2.9793639 0
15.177779 27.068537 2.9793587 0
15.021751 27.155369 2.9793532 0
14.865233 27.241306 2.9793479 0
14.70822 27.32634 2.9793429 0
14.550724 27.410477 2.9793377 0
14.392743 27.493694 2.9793327 0
14.234283 27.576004 2.9793274 0
14.075354 27.657412 2.9793227 0
13.915956 27.737894 2.9793177 0
13.756109 27.817461 2.9793129 0
13.595805 27.896097 2.9793079 0
13.435052 27.973822 2.9793031 0
13.273849 28.050625 2.9792986 0
13.112208 28.126488 2.9792938 0
12.950133 28.20142 2.9792893 0
12.787633 28.275425 2.9792848 0
12.624713 28.348495 2.9792802 0
12.461369 28.42063 2.9792759 0
12.297613 28.491816 2.9792714 0
12.133452 28.562065 2.9792671 0
11.968897 28.631361 2.9792631 0
11.803935 28.699711 2.9792588 0
11.638598 28.767113 2.9792547 0
11.472863 28.833569 2.9792507 0
11.306759 28.899067 2.9792466 0
11.140274 28.963612 2.9792426 0
10.973416 29.027197 2.9792387 0
10.806209 29.089809 2.9792349 0
10.638635 29.151474 2.9792311 0
10.47072 29.212158 2.9792275 0
10.302444 29.271889 2.9792237 0
10.133838 29.330654 2.9792202 0
9.9648962 29.388437 2.9792166 0
9.7956152 29.445248 2.9792132 0
9.6260214 29.501093 2.9792099 0
9.4561052 29.555956 2.9792063 0
9.285881 29.609848 2.9792032 0
9.115344 29.662752 2.9791999 0
8.9445057 29.714678 2.9791968 0
8.7733803 29.765625 2.9791937 0
8.6019545 29.81558 2.9791906 0
8.4302473 29.86455 2.9791875 0
8.2582636 29.912529 2.9791846 0
8.0860071 29.959526 2.9791818 0
7.9134846 30.005531 2.9791789 0
7.7406998 30.050541 2.9791763 0
7.5676541 30.094555 2.9791734 0
7.3943634 30.137568 2.9791708 0
7.2208281 30.179588 2.9791682 0
7.0470629 30.22061 2.9791658 0
6.8730454 30.260633 2.9791634 0
6.6988182 30.299652 2.979161 0
6.5243526 30.337675 2.9791586 0
6.3496838 30.374687 2.9791563 0
6.1748033 30.410698 2.9791541 0
5.9997215 30.445698 2.979152 0
5.8244333 30.479696 2.9791498 0
5.6489596 30.512684 2.9791479 0
5.4732971 30.544662 2.979146 0
5.2974534 30.57564 2.9791441 0
5.1214375 30.605579 2.9791422 0
4.9452486 30.634525 2.9791405 0
4.7688961 30.66246 2.9791389 0
4.5923877 30.689379 2.9791372 0
4.4157286 30.715273 2.9791355 0
4.2389183 30.740156 2.9791341 0
4.0619688 30.764027 2.9791324 0
3.8848872 30.786879 2.9791312 0
3.7076778 30.808704 2.9791298 0
3.5303476 30.829515 2.9791286 0
3.3529012 30.849306 2.9791274 0
3.1753449 30.86808 2.9791262 0
2.9976754 30.88582 2.979125 0
2.8199129 30.902548 2.9791241 0
2.64206 30.918251 2.9791231 0
2.4641182 30.932928 2.9791222 0
2.2860861 30.946587 2.9791214 0
2.1079855 30.959223 2.9791205 0
1.9298166 30.970829 2.9791198 0
1.7515818 30.981421 2.9791193 0
1.5732907 30.99098 2.9791186 0
1.3949509 30.999514 2.9791181 0
1.2165598 31.007023 2.9791176 0
1.0381272 31.013508 2.9791172 0
0.85966533 31.018961 2.9791169 0
0.68116927 31.02339 2.9791167 0
0.5026536 31.026793 2.9791164 0
0.32412091 31.029165 2.9791162 0
0.14558087 31.030529 2.9791162 0
-0.032968927 31.030842 2.9791162 0
-0.21150896 31.030142 2.9791162 0
-0.39005387 31.028414 2.9791164 0
-0.56857437 31.02566 2.9791164 0
-0.74708998 31.021866 2.9791167 0
-0.92557144 31.017067 2.9791172 0
-1.1040237 31.011232 2.9791174 0
-1.2824318 31.004362 2.9791179 0
-1.4608206 30.996475 2.9791183 0
-1.639136 30.98757 2.9791188 0
-1.8174074 30.977633 2.9791195 0
-1.9956203 30.966671 2.97912 0
-2.1737649 30.954679 2.979121 0
-2.3518314 30.941671 2.9791217 0
-2.5298393 30.927633 2.9791226 0
-2.7077444 30.912575 2.9791234 0
-2.8855715 30.896496 2.9791243 0
-3.0633011 30.879391 2.9791255 0
-3.2409232 30.861261 2.9791267 0
-3.4184377 30.842115 2.9791276 0
-3.5958548 30.821955 2.9791291 0
-3.77314 30.800762 2.9791303 0
-3.9502981 30.778561 2.9791317 0
-4.1273293 30.755333 2.9791331 0
-4.3042336 30.731091 2.9791346 0
-4.4809813 30.705835 2.979136 0
-4.657588 30.679556 2.9791377 0
-4.834033 30.652267 2.9791393 0
-5.0103221 30.62396 2.979141 0
-5.18645 30.594654 2.9791429 0
-5.362412 30.564308 2.9791448 0
-5.5381885 30.532974 2.9791467 0
-5.7137794 30.500622 2.9791486 0
-5.8891845 30.467257 2.9791508 0
-6.0643945 30.432892 2.9791527 0
-6.2394042 30.39752 2.9791551 0
-6.4142137 30.361143 2.9791572 0
-6.5888085 30.323755 2.9791594 0
-6.7631788 30.285368 2.9791617 0
-6.9373293 30.245974 2.9791641 0
-7.1112547 30.205578 2.9791667 0
-7.2849417 30.164186 2.9791691 0
-7.458384 30.121803 2.9791718 0
-7.6315823 30.078419 2.9791744 0
-7.8045363 30.034035 2.9791772 0
-7.9772272 29.988653 2.9791799 0
-8.1496534 29.942286 2.9791827 0
-8.3218069 29.894928 2.9791856 0
-8.4936914 29.846582 2.9791887 0
-8.6652832 29.797253 2.9791918 0
-8.8366108 29.746925 2.9791946 0
-9.007637 29.695616 2.979198 0
-9.1783495 29.643335 2.9792011 0
-9.348774 29.590065 2.9792044 0
-9.5188913 29.535812 2.9792078 0
-9.6886721 29.480581 2.9792111 0
-9.8581591 29.424385 2.9792144 0
-10.027319 29.367208 2.979218 0
-10.196137 29.309063 2.9792216 0
-10.364629 29.249947 2.9792252 0
-10.532763 29.189865 2.9792287 0
-10.700557 29.128809 2.9792325 0
-10.867993 29.066803 2.9792364 0
-11.035078 29.00382 2.9792402 0
-11.201792 28.939888 2.9792442 0
-11.368139 28.874992 2.979248 0
-11.534101 28.809139 2.9792521 0
-11.699697 28.742342 2.9792562 0
-11.864898 28.674587 2.9792604 0
-12.029702 28.605883 2.9792645 0
-12.194117 28.536238 2.9792688 0
-12.35814 28.465637 2.9792731 0
-12.521734 28.3941 2.9792776 0
-12.684928 28.321619 2.9792819 0
-12.847692 28.248207 2.9792864 0
-13.010045 28.173861 2.979291 0
-13.171949 28.098581 2.9792955 0
-13.333419 28.022371 2.9793003 0
-13.494464 27.945232 2.979305 0
-13.655054 27.867167 2.9793098 0
-13.815191 27.788187 2.9793146 0
-13.974884 27.708275 2.9793196 0
-14.134097 27.627464 2.9793243 0
-14.292857 27.545712 2.9793293 0
-14.451134 27.463079 2.9793344 0
-14.608936 27.379515 2.9793396 0
-14.766255 27.295048 2.9793448 0
-14.923097 27.209686 2.9793499 0
-15.079439 27.123417 2.9793553 0
-15.235279 27.036247 2.9793606 0
-15.390626 26.948187 2.9793661 0
-15.54545 26.859241 2.9793713 0
-15.699761 26.769392 2.9793768 0
-15.853556 26.678671 2.9793825 0
-16.006832 26.587053 2.979388 0
-16.159584 26.494564 2.9793937 0
-16.311789 26.401199 2.9793994 0
-16.463461 26.306955 2.9794052 0
-16.614586 26.211843 2.9794109 0
-16.76516 26.115858 2.9794168 0
-16.915178 26.019022 2.9794228 0
-17.064646 25.921316 2.9794288 0
-17.11632 25.676893 2.9626062 0
-17.039183 25.24523 2.9240642 0
-16.964312 24.825047 2.8866537 0
-16.899996 24.428011 2.8517461 0
-16.899996 24.130064 2.8282704 0
-16.899996 23.836994 2.8052692 0
-16.899996 23.548634 2.7827322 0
-16.899996 23.264858 2.7606447 0
-16.899996 22.985554 2.7389948 0
-16.899996 22.710583 2.7177711 0
-16.899996 22.439829 2.6969624 0
-16.899996 22.173182 2.676558 0
-16.899996 21.910526 2.6565464 0
-16.899996 21.651781 2.6369216 0
-16.899996 21.396797 2.6176667 0
-16.899996 21.145512 2.5987785 0
-16.899996 20.897818 2.5802455 0
-16.899996 20.653624 2.5620584 0
-16.899996 20.41284 2.54421 0
-16.899996 20.175383 2.5266919 0
-16.899996 19.941164 2.5094955 0
-16.899996 19.7101 2.492614 0
-16.899996 19.482115 2.4760382 0
-16.899996 19.257143 2.4597645 0
-16.899996 19.035103 2.443783 0
-16.899998 18.815922 2.4280882 0
-16.973154 18.680023 2.4231141 0
-17.075699 18.57699 2.4224534 0
-17.202297 18.499935 2.4252725 0
-17.401857 18.499937 2.4383595 0
-17.603586 18.499937 2.4516692 0
-17.807528 18.499939 2.4652069 0
15.506656 19.718695 2.9798083 0
15.392908 19.80755 2.9798028 0
15.278656 19.89576 2.9797974 0
15.163897 19.983303 2.9797921 0
15.048639 20.070189 2.9797866 0
14.932883 20.156408 2.9797814 0
14.816633 20.241964 2.9797761 0
14.699889 20.326843 2.9797709 0
14.582662 20.411053 2.9797659 0
14.464955 20.494587 2.9797606 0
14.34677 20.577438 2.9797556 0
14.22811 20.659616 2.9797506 0
14.108973 20.741106 2.9797456 0
13.989378 20.821909 2.9797406 0
13.869319 20.902025 2.9797359 0
13.748797 20.981445 2.9797311 0
13.627822 21.060175 2.9797261 0
13.506394 21.138203 2.9797213 0
13.384526 21.215527 2.9797165 0
13.262217 21.292162 2.979712 0
13.139465 21.368086 2.9797072 0
13.016274 21.4433 2.9797027 0
12.892656 21.517801 2.9796982 0
12.768619 21.591597 2.9796937 0
12.64415 21.664677 2.9796891 0
12.519269 21.73704 2.9796848 0
12.393971 21.808681 2.9796803 0
12.268267 21.879604 2.979676 0
12.142146 21.949795 2.9796717 0
12.015637 22.019266 2.9796674 0
11.888724 22.088007 2.9796634 0
11.761418 22.156019 2.9796591 0
11.633726 22.223295 2.979655 0
11.505646 22.289833 2.979651 0
11.37719 22.355644 2.9796469 0
11.248356 22.420702 2.9796429 0
11.11915 22.485023 2.9796391 0
10.989579 22.548594 2.979635 0
10.859642 22.611425 2.9796312 0
10.729345 22.67351 2.9796274 0
10.59869 22.734842 2.9796238 0
10.467687 22.79542 2.97962 0
10.336344 22.855244 2.9796164 0
10.204652 22.914316 2.9796128 0
10.072622 22.972622 2.9796093 0
9.9402609 23.030165 2.9796057 0
9.8075771 23.086952 2.9796021 0
9.6745625 23.142979 2.9795988 0
9.5412292 23.198233 2.9795954 0
9.4075842 23.252724 2.9795921 0
9.2736244 23.306444 2.9795887 0
9.1393614 23.359394 2.9795854 0
9.0047941 23.411566 2.9795823 0
8.8699265 23.462963 2.9795792 0
8.734767 23.513594 2.9795761 0
8.5993214 23.563433 2.979573 0
8.4635897 23.612499 2.9795699 0
8.3275766 23.660786 2.9795671 0
8.1912851 23.708286 2.9795642 0
8.0547371 23.754995 2.9795613 0
7.9179058 23.800938 2.9795585 0
7.7808204 23.846073 2.9795558 0
7.6434803 23.890429 2.979553 0
7.5058885 23.933989 2.9795504 0
7.3680444 23.976763 2.9795477 0
7.2299523 24.01874 2.9795451 0
7.0916286 24.059916 2.9795427 0
6.9530663 24.100302 2.9795401 0
6.8142796 24.139896 2.9795377 0
6.6752648 24.178686 2.9795353 0
6.5360265 24.216675 2.979533 0
6.3965721 24.253857 2.9795308 0
6.2569118 24.290249 2.9795287 0
6.1170373 24.325829 2.9795263 0
5.9769678 24.360609 2.9795241 0
5.8366966 24.394575 2.9795222 0
5.6962352 24.427738 2.9795201 0
5.5555835 24.460093 2.9795182 0
5.4147496 24.491634 2.9795163 0
5.2737303 24.522373 2.9795144 0
5.1325426 24.552299 2.9795125 0
4.9911766 24.581406 2.9795108 0
4.8496618 24.609707 2.9795091 0
4.7079749 24.637182 2.9795074 0
4.5661387 24.663853 2.9795058 0
4.4241443 24.689707 2.9795041 0
4.282012 24.714741 2.9795027 0
4.1397305 24.738955 2.979501 0
3.9973195 24.762352 2.9794996 0
3.854768 24.784931 2.9794984 0
3.7120972 24.806694 2.979497 0
3.5692956 24.827627 2.9794958 0
3.426383 24.847744 2.9794946 0
3.2833521 24.867041 2.9794934 0
3.1402185 24.885511 2.9794922 0
2.9969814 24.903158 2.979491 0
2.8536415 24.919979 2.97949 0
2.7102089 24.935976 2.9794891 0
2.5666859 24.951151 2.9794881 0
2.4230702 24.965498 2.9794872 0
2.2793837 24.979027 2.9794865 0
2.1356189 24.991722 2.9794858 0
1.991781 25.003584 2.979485 0
1.847882 25.014627 2.9794843 0
1.7039198 25.024843 2.9794836 0
1.5599037 25.034224 2.9794831 0
1.4158338 25.042782 2.9794824 0
1.2717152 25.050514 2.9794819 0
1.1275624 25.057413 2.9794817 0
0.98336315 25.063482 2.9794812 0
0.83913463 25.068722 2.979481 0
0.69487929 25.073132 2.9794807 0
0.55059952 25.076715 2.9794805 0
0.40630507 25.07946 2.9794803 0
0.261996 25.081388 2.9794803 0
0.1176747 25.082478 2.97948 0
-0.026651461 25.082741 2.97948 0
-0.17096786 25.082169 2.97948 0
-0.31528425 25.080769 2.9794803 0
-0.45958602 25.078547 2.9794803 0
-0.6038878 25.075485 2.9794805 0
-0.74815047 25.071602 2.9794807 0
-0.89239854 25.066881 2.979481 0
-1.0366124 25.061338 2.9794815 0
-1.180797 25.054962 2.9794817 0
-1.3249425 25.04775 2.9794822 0
-1.469044 25.039722 2.9794827 0
-1.6130869 25.030861 2.9794834 0
-1.7570909 25.021164 2.9794838 0
-1.9010265 25.010651 2.9794846 0
-2.0449083 24.999304 2.9794853 0
-2.1887169 24.987125 2.979486 0
-2.3324523 24.974127 2.9794867 0
-2.4761143 24.960299 2.9794877 0
-2.6196983 24.945646 2.9794884 0
-2.7631748 24.930172 2.9794893 0
-2.9065781 24.913864 2.9794905 0
-3.0498788 24.89674 2.9794915 0
-3.1930869 24.87879 2.9794927 0
-3.3361826 24.86001 2.9794936 0
-3.4791758 24.840412 2.9794948 0
-3.6220419 24.819996 2.9794962 0
-3.764796 24.798752 2.9794974 0
-3.9074228 24.776701 2.9794989 0
-4.0499277 24.753809 2.9795003 0
-4.192286 24.730114 2.9795017 0
-4.3345222 24.705587 2.9795032 0
-4.4765978 24.68026 2.9795046 0
-4.618536 24.654102 2.9795063 0
-4.7603183 24.627134 2.9795079 0
-4.9019442 24.599352 2.9795096 0
-5.0434093 24.570753 2.9795115 0
-5.1847029 24.541334 2.9795132 0
-5.3258262 24.51112 2.9795151 0
-5.4667687 24.480083 2.979517 0
-5.6075449 24.448244 2.9795189 0
-5.748126 24.415583 2.9795208 0
-5.8885164 24.38212 2.9795229 0
-6.0287166 24.347853 2.9795251 0
-6.1687169 24.312784 2.9795272 0
-6.308507 24.276901 2.9795294 0
-6.4480968 24.240227 2.9795315 0
-6.5874715 24.20274 2.9795339 0
-6.7266221 24.16445 2.9795363 0
-6.8655529 24.125368 2.9795387 0
-7.0042634 24.085489 2.9795411 0
-7.1427402 24.044806 2.9795437 0
-7.2809725 24.003326 2.9795461 0
-7.4189706 23.961061 2.9795487 0
-7.5567245 23.917994 2.9795513 0
-7.6942296 23.874142 2.9795539 0
-7.8314805 23.829493 2.9795568 0
-7.9684582 23.784069 2.9795594 0
-8.1051912 23.737843 2.9795623 0
-8.2416515 23.690836 2.9795651 0
-8.3778381 23.643047 2.9795682 0
-8.5137415 23.594469 2.9795711 0
-8.6493759 23.545124 2.9795742 0
-8.784708 23.494987 2.9795773 0
-8.9197617 23.444073 2.9795804 0
-9.054513 23.392393 2.9795835 0
-9.1889753 23.339933 2.9795866 0
-9.3231258 23.286695 2.9795899 0
-9.4569788 23.232691 2.9795933 0
-9.5905037 23.177921 2.9795966 0
-9.7237167 23.122383 2.9796 0
-9.8566122 23.066086 2.9796035 0
-9.9891806 23.009005 2.9796069 0
-10.121412 22.951178 2.9796104 0
-10.253326 22.892584 2.979614 0
-10.384884 22.833244 2.9796176 0
-10.516109 22.773136 2.9796214 0
-10.646983 22.712282 2.979625 0
-10.777501 22.650671 2.9796288 0
-10.907667 22.588312 2.9796326 0
-11.037467 22.525206 2.9796364 0
-11.166905 22.461359 2.9796405 0
-11.295978 22.396753 2.9796443 0
-11.424668 22.331429 2.9796484 0
-11.552989 22.265345 2.9796524 0
-11.680929 22.198544 2.9796565 0
-11.808474 22.130989 2.9796607 0
-11.935632 22.062714 2.9796648 0
-12.062399 21.993704 2.9796691 0
-12.188776 21.923958 2.9796734 0
-12.314734 21.853498 2.9796777 0
-12.440289 21.782318 2.979682 0
-12.565432 21.710409 2.9796863 0
-12.690163 21.637777 2.9796908 0
-12.814469 21.564442 2.9796953 0
-12.938356 21.490379 2.9796999 0
-13.061818 21.415609 2.9797044 0
-13.184846 21.34013 2.9797091 0
-13.307433 21.263943 2.9797137 0
-13.429586 21.187059 2.9797184 0
-13.551291 21.10947 2.9797232 0
-13.672545 21.031185 2.979728 0
-13.793356 20.9522 2.9797328 0
-13.913713 20.872519 2.9797375 0
-14.033595 20.792152 2.9797425 0
-14.153029 20.711092 2.9797475 0
-14.271979 20.629354 2.9797525 0
-14.390471 20.546926 2.9797575 0
-14.508483 20.463821 2.9797626 0
-14.626007 20.380032 2.9797678 0
-14.743058 20.295574 2.979773 0
-14.859621 20.210453 2.9797781 0
-14.97569 20.124647 2.9797833 0
-15.091256 20.038187 2.9797888 0
-15.206335 19.951054 2.979794 0
-15.320915 19.863264 2.9797993 0
-15.434973 19.774822 2.9798048 0
-15.548527 19.685717 2.9798102 0
-15.661564 19.595961 2.9798157 0
-15.774084 19.50556 2.9798212 0
-15.88609 19.414511 2.9798269 0
-15.997573 19.322826 2.9798324 0
-16.108503 19.230486 2.9798381 0
-16.21892 19.137524 2.9798439 0
-16.328804 19.043919 2.9798496 0
-16.438143 18.94969 2.9798553 0
-16.546928 18.854832 2.979861 0
-16.65517 18.75935 2.979867 0
-16.762878 18.66324 2.9798727 0
-16.870024 18.566511 2.9798787 0
-16.976606 18.469177 2.9798846 0
-17.082624 18.371233 2.9798906 0
-17.188078 18.272669 2.9798968 0
-17.292974 18.173504 2.9799027 0
-17.397285 18.073744 2.9799089 0
13.000933 16.532352 2.9800031 0
12.905574 16.606859 2.9799986 0
12.809784 16.680815 2.9799941 0
12.713578 16.754229 2.9799895 0
12.616943 16.827074 2.979985 0
12.5199 16.899364 2.9799807 0
12.422437 16.971104 2.9799764 0
12.324564 17.042271 2.9799719 0
12.226282 17.112875 2.9799676 0
12.127598 17.182919 2.9799633 0
12.028515 17.252388 2.979959 0
11.929029 17.321289 2.979955 0
11.82915 17.389618 2.9799507 0
11.728881 17.457373 2.9799466 0
11.628224 17.524536 2.9799426 0
11.527183 17.591133 2.9799383 0
11.425755 17.657148 2.9799342 0
11.323959 17.722572 2.9799304 0
11.221781 17.787407 2.9799263 0
11.119239 17.85166 2.9799225 0
11.016323 17.915321 2.9799185 0
10.91304 17.978384 2.9799147 0
10.809402 18.040859 2.9799109 0
10.705405 18.10273 2.979907 0
10.601055 18.164009 2.9799032 0
10.496353 18.224678 2.9798996 0
10.391305 18.28475 2.9798958 0
10.28591 18.344217 2.9798923 0
10.180179 18.40307 2.9798887 0
10.074105 18.461323 2.9798851 0
9.9677114 18.518965 2.9798815 0
9.8609734 18.575981 2.9798782 0
9.7539177 18.632393 2.9798751 0
9.6465387 18.688183 2.979871 0
9.5388346 18.743364 2.9798679 0
9.4308167 18.797915 2.9798646 0
9.3224964 18.851845 2.9798613 0
9.2138662 18.905151 2.9798579 0
9.1049185 18.957832 2.9798548 0
8.9956779 19.009892 2.9798515 0
8.8861408 19.061317 2.9798484 0
8.7763081 19.112114 2.9798458 0
8.6661844 19.162266 2.9798422 0
8.5557766 19.211796 2.9798393 0
8.4450817 19.260693 2.9798362 0
8.3341131 19.308945 2.9798338 0
8.2228661 19.356558 2.9798303 0
8.1113501 19.403534 2.9798274 0
7.9995594 19.449858 2.9798248 0
7.8875089 19.495552 2.9798219 0
7.7751966 19.54059 2.9798191 0
7.6626258 19.58499 2.9798164 0
7.5497999 19.628735 2.9798138 0
7.436729 19.671841 2.9798112 0
7.3234072 19.714281 2.9798086 0
7.2098503 19.756079 2.9798059 0
7.0960512 19.79722 2.9798033 0
6.9820156 19.837704 2.9798009 0
6.8677492 19.877533 2.9797986 0
6.753262 19.916704 2.9797959 0
6.6385465 19.955214 2.9797938 0
6.5236101 19.993065 2.9797914 0
6.4084587 20.030258 2.9797893 0
6.2931032 20.066786 2.9797869 0
6.1775308 20.102646 2.9797847 0
6.0617495 20.137846 2.9797826 0
5.9457817 20.172373 2.9797804 0
5.8296099 20.20624 2.9797783 0
5.7132449 20.239428 2.9797764 0
5.5966935 20.271957 2.9797745 0
5.479949 20.303812 2.9797723 0
5.3630385 20.33499 2.9797704 0
5.2459378 20.365501 2.9797688 0
5.1286626 20.395342 2.9797673 0
5.0112286 20.424501 2.9797649 0
4.893621 20.452978 2.9797633 0
4.775856 20.480785 2.9797616 0
4.6579275 20.507919 2.9797599 0
4.5398526 20.53437 2.9797587 0
4.4216189 20.560141 2.9797568 0
4.3032427 20.585228 2.9797552 0
4.1847243 20.609638 2.9797537 0
4.066071 20.633364 2.9797523 0
3.9472771 20.656406 2.9797509 0
3.8283625 20.678768 2.9797494 0
3.7093122 20.700439 2.9797482 0
3.5901423 20.721436 2.9797468 0
3.4708538 20.741737 2.9797456 0
3.3514459 20.761366 2.9797444 0
3.2319329 20.780293 2.9797432 0
3.1123114 20.798534 2.9797421 0
2.9925861 20.816093 2.9797411 0
2.8727593 20.832958 2.9797401 0
2.7528436 20.849134 2.979739 0
2.632834 20.864624 2.9797382 0
2.5127375 20.879417 2.9797373 0
2.3925567 20.89353 2.9797363 0
2.2723053 20.906942 2.9797356 0
