# .PCD v0.7 - Point Cloud Data file format
VERSION 0.7
FIELDS x y z intensity
SIZE 4 4 4 4
TYPE F F F F
COUNT 1 1 1 1
WIDTH 1431
HEIGHT 1
VIEWPOINT 0 0 0 1 0 0 0
POINTS 1431
DATA ascii
5.5177903 -24.492817 2.9823196 0
5.658917 -24.460571 2.9823174 0
5.7998643 -24.427519 2.9823155 0
5.9406028 -24.393658 2.9823134 0
6.0811534 -24.358984 2.9823112 0
6.2215085 -24.32349 2.9823091 0
6.3616357 -24.287201 2.982307 0
6.5015731 -24.250097 2.9823046 0
6.641284 -24.212193 2.9823024 0
6.7807736 -24.173475 2.9823 0
6.9200339 -24.133955 2.9822974 0
7.0590672 -24.093637 2.982295 0
7.1978645 -24.052515 2.9822927 0
7.336422 -24.01059 2.98229 0
7.4747372 -23.967865 2.9822874 0
7.6128135 -23.924345 2.9822848 0
7.7506123 -23.880039 2.9822819 0
7.8881783 -23.834927 2.9822793 0
8.0254688 -23.789022 2.9822764 0
8.1624937 -23.742334 2.9822736 0
8.2992401 -23.694849 2.9822707 0
8.4357214 -23.646572 2.9822676 0
8.5719128 -23.597525 2.9822648 0
8.7078257 -23.547676 2.9822617 0
8.8434563 -23.497051 2.9822586 0
8.9787664 -23.445654 2.9822555 0
9.1137896 -23.393467 2.9822521 0
9.2485275 -23.340498 2.982249 0
-8.4407158 -19.27927 2.9820004 0
-8.3294115 -19.32765 2.9820035 0
-8.217844 -19.375364 2.9820063 0
-8.1060085 -19.422443 2.9820094 0
-7.9938846 -19.468885 2.982012 0
-7.8815017 -19.514666 2.9820149 0
-7.7688551 -19.559807 2.9820178 0
-7.6559501 -19.60429 2.9820204 0
-7.5428004 -19.648129 2.982023 0
-7.4293923 -19.691307 2.9820256 0
-7.3157401 -19.733841 2.9820282 0
-7.2018337 -19.775705 2.9820309 0
-7.0876932 -19.816927 2.9820335 0
-6.9733181 -19.857473 2.9820359 0
-6.8587089 -19.897371 2.982038 0
-6.7438745 -19.936609 2.9820406 0
-6.6288161 -19.975174 2.982043 0
-6.5135379 -20.013084 2.9820454 0
-6.3980398 -20.050316 2.9820478 0
-6.2823319 -20.086893 2.9820499 0
-6.1664138 -20.122786 2.9820521 0
-6.0502906 -20.15802 2.9820542 0
-5.9339576 -20.192595 2.9820564 0
-5.8174343 -20.226486 2.9820585 0
-5.7007203 -20.259701 2.9820604 0
-5.5838017 -20.29225 2.9820626 0
-5.4667168 -20.324123 2.9820645 0
-5.3494411 -20.35532 2.9820664 0
-5.2319899 -20.385838 2.9820681 0
-5.1143632 -20.415682 2.98207 0
-4.9965653 -20.444841 2.9820719 0
-4.8785963 -20.473324 2.9820735 0
-4.7604814 -20.501125 2.9820752 0
-4.6422 -20.52825 2.9820769 0
-4.5237479 -20.554686 2.9820786 0
-4.4051738 -20.580433 2.9820802 0
-4.2864285 -20.605505 2.9820817 0
-4.1675515 -20.629885 2.9820831 0
-4.0485287 -20.653582 2.9820845 0
-3.929373 -20.67659 2.9820859 0
-3.8100958 -20.698919 2.9820874 0
-3.6906719 -20.720554 2.9820893 0
-3.5711553 -20.741491 2.98209 0
-3.4514971 -20.761745 2.9820912 0
-3.3317316 -20.781311 2.9820924 0
-3.2118585 -20.800188 2.982094 0
-3.0918732 -20.818367 2.9820948 0
-2.9717803 -20.835857 2.9820957 0
-2.8515851 -20.852659 2.9820969 0
-2.7313116 -20.868757 2.9820979 0
-2.6109455 -20.884163 2.9820988 0
-2.4904766 -20.89888 2.9820995 0
-2.3699443 -20.912893 2.9821005 0
-2.2493145 -20.926214 2.9821012 0
-2.1286163 -20.938841 2.9821026 0
-2.0078595 -20.950773 2.9821029 0
-1.8870196 -20.962004 2.9821036 0
-1.7661213 -20.972548 2.9821041 0
-1.6451739 -20.982386 2.9821048 0
-1.5241632 -20.991522 2.9821053 0
-1.4030988 -20.999968 2.9821057 0
-1.2819953 -21.007708 2.982106 0
-1.1608478 -21.014753 2.9821067 0
-1.0396466 -21.021101 2.9821072 0
-0.91843569 -21.026751 2.9821074 0
-0.79717594 -21.031702 2.9821076 0
-0.67589176 -21.035946 2.9821081 0
-0.55458802 -21.039499 2.9821081 0
-0.43326971 -21.042347 2.9821084 0
-0.31193671 -21.0445 2.9821086 0
-0.19058904 -21.045944 2.9821086 0
-0.069236517 -21.046692 2.9821086 0
0.052113578 -21.046745 2.9821086 0
0.17347832 -21.046091 2.9821086 0
0.29481131 -21.044744 2.9821086 0
0.41615897 -21.042692 2.9821084 0
0.53748471 -21.03994 2.9821084 0
0.65877616 -21.036488 2.9821081 0
0.78007257 -21.032341 2.9821079 0
0.90132743 -21.027498 2.9821074 0
1.0225676 -21.021946 2.9821072 0
1.1437469 -21.015696 2.9821067 0
1.2649065 -21.008747 2.9821062 0
1.3860222 -21.001102 2.982106 0
1.5070843 -20.992758 2.9821053 0
1.6281048 -20.983715 2.9821048 0
1.7490691 -20.97398 2.9821043 0
1.8699651 -20.963535 2.9821036 0
1.9908123 -20.952402 2.9821029 0
2.1115887 -20.940571 2.9821019 0
2.2322967 -20.928041 2.9821019 0
2.3529265 -20.91481 2.9821005 0
2.4734783 -20.900898 2.9820998 0
2.5939543 -20.88629 2.9820988 0
2.7143328 -20.870972 2.9820979 0
2.8346367 -20.854965 2.9820969 0
2.9548357 -20.838272 2.982096 0
3.0749297 -20.820873 2.9820948 0
3.194942 -20.802794 2.9820943 0
3.3148308 -20.784014 2.9820926 0
3.4346075 -20.764551 2.9820914 0
3.5542767 -20.744389 2.9820902 0
3.6738384 -20.723549 2.9820893 0
3.7932537 -20.702007 2.9820876 0
3.9125531 -20.67979 2.9820862 0
4.0317326 -20.65687 2.9820848 0
4.1507635 -20.63327 2.9820833 0
4.26967 -20.608984 2.9820819 0
4.3884249 -20.584009 2.9820805 0
4.5070271 -20.558359 2.9820788 0
4.625495 -20.532017 2.9820771 0
4.7438006 -20.50499 2.9820755 0
4.8619552 -20.477285 2.9820738 0
4.9799371 -20.448906 2.9820721 0
5.0977535 -20.419834 2.9820702 0
5.2154131 -20.390087 2.9820683 0
5.3328805 -20.359667 2.9820666 0
5.4501886 -20.328564 2.9820647 0
5.5673079 -20.296787 2.9820628 0
5.6842403 -20.264336 2.9820609 0
5.8009858 -20.231211 2.9820588 0
5.9175324 -20.197412 2.9820566 0
6.0338874 -20.162945 2.9820547 0
6.1500411 -20.127808 2.9820526 0
6.2659869 -20.092001 2.9820502 0
6.3817377 -20.055511 2.982048 0
6.4972515 -20.018373 2.9820457 0
6.6125751 -19.980556 2.9820435 0
6.7276678 -19.942085 2.9820411 0
6.8425322 -19.902939 2.9820385 0
6.957171 -19.863144 2.9820364 0
7.071579 -19.82268 2.9820337 0
7.1857476 -19.781563 2.9820313 0
7.2996807 -19.739784 2.9820287 0
7.4133821 -19.697348 2.9820261 0
7.5268097 -19.654257 2.9820235 0
7.6400065 -19.610518 2.9820209 0
7.7529473 -19.566118 2.982018 0
-7.2593088 -16.580847 2.9818354 0
-7.1635814 -16.622444 2.981838 0
-7.0676241 -16.663488 2.9818406 0
-6.9714427 -16.703972 2.981843 0
-6.8750167 -16.743904 2.9818454 0
-6.7783618 -16.783283 2.9818478 0
-6.6814818 -16.822102 2.9818501 0
-6.5843821 -16.860359 2.9818525 0
-6.4870677 -16.898054 2.9818549 0
-6.3895288 -16.935188 2.9818571 0
-6.2917795 -16.97176 2.9818594 0
-6.1938257 -17.007771 2.9818616 0
-6.0956516 -17.043215 2.9818637 0
-5.9972873 -17.078094 2.9818659 0
-5.8987231 -17.112396 2.981868 0
-5.7999582 -17.146141 2.9818699 0
-5.7010031 -17.179304 2.9818721 0
-5.6018577 -17.211903 2.981874 0
-5.5025268 -17.243933 2.9818761 0
-5.4030099 -17.275379 2.981878 0
-5.3033175 -17.306257 2.9818799 0
-5.2034445 -17.336555 2.9818816 0
-5.1033959 -17.366287 2.9818835 0
-5.003181 -17.395432 2.9818852 0
-4.9028001 -17.424002 2.9818871 0
-4.802258 -17.45199 2.9818888 0
-4.7015553 -17.479397 2.9818904 0
-4.6006961 -17.506224 2.9818921 0
-4.4996805 -17.532473 2.9818938 0
-4.3985186 -17.558132 2.9818952 0
-4.297205 -17.583216 2.9818969 0
-4.195745 -17.607712 2.9818983 0
-4.0941629 -17.631615 2.9818997 0
-3.9924343 -17.654934 2.9819012 0
-3.890564 -17.677673 2.9819026 0
-3.7885816 -17.699821 2.981904 0
-3.6864526 -17.721375 2.9819052 0
-3.5842214 -17.742346 2.9819064 0
-3.4818628 -17.762728 2.9819078 0
-3.3793874 -17.782513 2.981909 0
-3.2768042 -17.801712 2.9819102 0
-3.1740992 -17.82032 2.9819112 0
-3.0713062 -17.838327 2.9819124 0
-2.968401 -17.855745 2.9819136 0
-2.8653884 -17.872576 2.9819145 0
-2.7623024 -17.888802 2.9819155 0
-2.6590993 -17.904442 2.9819164 0
-2.5558228 -17.919479 2.9819174 0
-2.4524539 -17.933924 2.9819183 0
-2.3490162 -17.947767 2.9819191 0
-2.2454958 -17.961023 2.98192 0
-2.1418874 -17.973675 2.9819207 0
-2.0382302 -17.985731 2.9819214 0
-1.9344851 -17.997185 2.9819221 0
-1.8306766 -18.008049 2.9819229 0
-1.726824 -18.018303 2.9819233 0
-1.6228933 -18.027962 2.9819241 0
-1.5189188 -18.037024 2.9819245 0
-1.4148904 -18.04549 2.981925 0
-1.3108231 -18.053347 2.9819255 0
-1.2067116 -18.060608 2.981926 0
-1.1025565 -18.067274 2.9819264 0
-0.99836206 -18.073328 2.9819267 0
-0.89412862 -18.078793 2.9819272 0
-0.78988057 -18.083645 2.9819274 0
-0.6855886 -18.087898 2.9819276 0
-0.58129174 -18.091555 2.9819279 0
-0.47696558 -18.094603 2.9819281 0
-0.37262475 -18.097054 2.9819281 0
-0.26826927 -18.098904 2.9819283 0
-0.16390891 -18.100155 2.9819283 0
-0.059543692 -18.100794 2.9819283 0
0.044821538 -18.100843 2.9819283 0
0.14919655 -18.100281 2.9819283 0
0.2535471 -18.099113 2.9819283 0
0.35790992 -18.097357 2.9819283 0
0.4622483 -18.094984 2.9819281 0
0.56656957 -18.09202 2.9819279 0
0.67088354 -18.088455 2.9819276 0
0.77516574 -18.08428 2.9819274 0
0.87943578 -18.079514 2.9819272 0
0.9836545 -18.074133 2.9819269 0
1.0878537 -18.068157 2.9819264 0
1.1920211 -18.06159 2.981926 0
1.2961349 -18.054413 2.9819257 0
1.4002194 -18.046635 2.9819252 0
1.5042526 -18.038261 2.9819245 0
1.6082273 -18.029278 2.9819241 0
1.7121652 -18.019707 2.9819236 0
1.8160324 -18.009537 2.9819229 0
1.9198458 -17.998755 2.9819221 0
2.023591 -17.987383 2.9819214 0
2.1272655 -17.97541 2.9819207 0
2.2308786 -17.962841 2.98192 0
2.3344138 -17.949678 2.9819193 0
2.4378757 -17.935907 2.9819183 0
2.5412474 -17.921553 2.9819174 0
2.6445372 -17.906591 2.9819167 0
2.7477391 -17.891045 2.9819157 0
2.8508568 -17.874897 2.9819145 0
2.9538705 -17.858158 2.9819136 0
3.0567894 -17.840824 2.9819126 0
3.1596165 -17.822891 2.9819114 0
3.2623155 -17.804375 2.9819102 0
3.3649228 -17.785263 2.981909 0
3.4674215 -17.765556 2.9819078 0
3.5697861 -17.745255 2.9819067 0
3.6720493 -17.724369 2.9819055 0
3.774183 -17.7029 2.981904 0
3.8761814 -17.680834 2.9819028 0
3.9780686 -17.658178 2.9819014 0
4.0798163 -17.634947 2.9819 0
4.1814389 -17.611113 2.9818985 0
4.2829013 -17.586708 2.9818971 0
4.3842316 -17.561714 2.9818954 0
4.4854231 -17.536127 2.981894 0
4.5864487 -17.509966 2.9818923 0
4.6873422 -17.483217 2.9818907 0
4.7880616 -17.455893 2.981889 0
4.8886313 -17.427988 2.9818873 0
4.9890332 -17.399496 2.9818854 0
5.0892735 -17.370434 2.9818838 0
5.1893406 -17.340796 2.9818819 0
5.2892346 -17.310572 2.9818802 0
5.3889537 -17.27977 2.9818783 0
5.4885011 -17.248404 2.9818764 0
5.5878553 -17.216459 2.9818745 0
5.6870337 -17.183941 2.9818723 0
5.7860146 -17.15085 2.9818704 0
5.8848009 -17.117191 2.9818683 0
5.9833961 -17.082968 2.9818661 0
6.0817943 -17.048168 2.981864 0
6.1799865 -17.012808 2.9818618 0
6.2779737 -16.976875 2.9818597 0
6.3757567 -16.94038 2.9818575 0
6.4733152 -16.90333 2.9818552 0
6.5706615 -16.865713 2.981853 0
6.6678014 -16.827524 2.9818506 0
-6.3621898 -14.531752 2.9817102 0
-6.2782931 -14.568202 2.9817123 0
-6.1941967 -14.604178 2.9817145 0
-6.1098995 -14.639657 2.9817166 0
-6.025383 -14.674652 2.9817188 0
-5.940671 -14.709159 2.9817209 0
-5.8557687 -14.743173 2.9817231 0
-5.7706714 -14.776708 2.9817252 0
-5.6853733 -14.809745 2.9817271 0
-5.5998898 -14.842289 2.981729 0
-5.5142212 -14.874345 2.9817312 0
-5.4283714 -14.905897 2.9817331 0
-5.3423314 -14.936962 2.981735 0
-5.2561202 -14.967528 2.9817367 0
-5.1697388 -14.997597 2.9817386 0
-5.0831809 -15.027157 2.9817405 0
-4.9964523 -15.056234 2.9817421 0
-4.9095578 -15.084799 2.9817441 0
-4.8225021 -15.112865 2.9817457 0
-4.7352853 -15.140429 2.9817474 0
-4.6479125 -15.167489 2.9817491 0
-4.5603833 -15.194042 2.9817507 0
-4.4726977 -15.220092 2.9817522 0
-4.3848658 -15.245644 2.9817538 0
-4.2968969 -15.270673 2.9817553 0
-4.2087765 -15.295204 2.9817569 0
-4.1205149 -15.319222 2.9817584 0
-4.0321217 -15.342738 2.9817598 0
-3.9435911 -15.365736 2.9817612 0
-3.8549242 -15.388231 2.9817624 0
-3.76614 -15.410204 2.9817638 0
-3.6772192 -15.431674 2.9817653 0
-3.5881908 -15.452621 2.9817665 0
-3.4990306 -15.473065 2.9817677 0
-3.4097533 -15.492992 2.9817688 0
-3.3203733 -15.512391 2.98177 0
-3.2308714 -15.531293 2.9817712 0
-3.1412671 -15.549666 2.9817724 0
-3.0515552 -15.567523 2.9817734 0
-2.9617455 -15.584867 2.9817746 0
-2.8718333 -15.601693 2.9817755 0
-2.7818284 -15.617997 2.9817765 0
-2.6917357 -15.633783 2.9817774 0
-2.6015501 -15.649047 2.9817784 0
-2.511272 -15.663793 2.9817793 0
-2.4209204 -15.678012 2.9817803 0
-2.330476 -15.691723 2.981781 0
-2.2399583 -15.704896 2.981782 0
-2.1493628 -15.717558 2.9817827 0
-2.0587084 -15.729692 2.9817834 0
-1.9679809 -15.741307 2.9817841 0
-1.8771801 -15.752397 2.9817848 0
-1.7863305 -15.762963 2.9817855 0
-1.6954076 -15.773003 2.981786 0
-1.604431 -15.782519 2.9817867 0
-1.5134106 -15.791513 2.9817872 0
-1.4223315 -15.799975 2.9817877 0
-1.3312036 -15.80792 2.9817882 0
-1.2400365 -15.815331 2.9817886 0
-1.1488208 -15.822227 2.9817891 0
-1.0575805 -15.828584 2.9817894 0
-0.96629626 -15.834424 2.9817898 0
-0.874973 -15.839736 2.9817901 0
-0.78362536 -15.844512 2.9817905 0
-0.69226307 -15.848769 2.9817908 0
-0.60086656 -15.8525 2.981791 0
-0.50945055 -15.855703 2.981791 0
-0.41801503 -15.858378 2.9817913 0
-0.32657462 -15.860522 2.9817915 0
-0.23511952 -15.862139 2.9817915 0
-0.14365467 -15.863237 2.9817915 0
-0.052184958 -15.863804 2.9817915 0
0.039282326 -15.863843 2.9817915 0
0.13075937 -15.863349 2.9817915 0
0.22221445 -15.862329 2.9817915 0
0.31367928 -15.860785 2.9817915 0
0.40512216 -15.85871 2.9817913 0
0.49654794 -15.856113 2.981791 0
0.58797371 -15.852983 2.981791 0
0.67937022 -15.849326 2.9817908 0
0.77074963 -15.845146 2.9817905 0
0.86209238 -15.840439 2.9817901 0
0.95341319 -15.835205 2.9817898 0
1.0447047 -15.829438 2.9817896 0
1.1359497 -15.823154 2.9817891 0
1.2271754 -15.816338 2.9817886 0
1.3183496 -15.808999 2.9817882 0
1.4094727 -15.801123 2.9817877 0
1.500564 -15.792734 2.9817872 0
1.5915991 -15.783818 2.9817867 0
1.6825806 -15.77438 2.9817863 0
1.7735034 -15.764409 2.9817855 0
1.8643701 -15.753916 2.9817848 0
1.9551734 -15.7429 2.9817841 0
2.0459106 -15.731362 2.9817834 0
2.1365919 -15.719296 2.9817827 0
2.22719 -15.706714 2.981782 0
2.3177099 -15.693613 2.9817812 0
2.4081664 -15.67998 2.9817803 0
2.4985352 -15.66583 2.9817796 0
2.5888159 -15.651157 2.9817786 0
2.6790173 -15.635966 2.9817777 0
2.7691345 -15.620249 2.9817767 0
2.8591418 -15.604023 2.9817758 0
2.9490662 -15.587271 2.9817746 0
3.0388954 -15.57 2.9817736 0
3.1286132 -15.552221 2.9817727 0
3.2182398 -15.533916 2.9817715 0
3.3077526 -15.515088 2.9817703 0
3.397146 -15.495757 2.9817691 0
3.4864428 -15.475908 2.9817679 0
3.5756176 -15.455537 2.9817667 0
3.6646788 -15.434658 2.9817653 0
3.7536035 -15.413266 2.9817641 0
3.8424096 -15.391357 2.9817626 0
3.9310937 -15.36894 2.9817612 0
4.0196352 -15.346015 2.98176 0
4.1080613 -15.322568 2.9817586 0
4.1963367 -15.298623 2.9817569 0
4.2844739 -15.27416 2.9817555 0
4.3724694 -15.249194 2.9817541 0
4.4603209 -15.223725 2.9817524 0
4.5480223 -15.197745 2.981751 0
4.6355724 -15.171266 2.9817493 0
4.7229676 -15.144273 2.9817476 0
4.8102136 -15.116783 2.981746 0
4.8972874 -15.08879 2.9817443 0
4.9842091 -15.060288 2.9817424 0
5.0709581 -15.03129 2.9817407 0
5.1575403 -15.001798 2.9817388 0
5.2439489 -14.971803 2.9817371 0
5.3301868 -14.941299 2.9817352 0
5.416244 -14.910314 2.9817333 0
5.5021176 -14.878829 2.9817314 0
5.587821 -14.846842 2.9817295 0
5.6733227 -14.814366 2.9817274 0
5.7586436 -14.781397 2.9817255 0
5.8437805 -14.747935 2.9817233 0
-5.6571259 -12.921327 2.9816115 0
-5.5825262 -12.953744 2.9816136 0
-5.5077457 -12.985726 2.9816155 0
-5.4327946 -13.017264 2.9816175 0
-5.3576436 -13.048392 2.9816194 0
-5.282321 -13.079076 2.9816213 0
-5.2068229 -13.109321 2.9816232 0
-5.1311541 -13.139134 2.9816248 0
-5.0553093 -13.168505 2.9816267 0
-4.9793086 -13.19745 2.9816284 0
-4.9031267 -13.225946 2.9816303 0
-4.8267889 -13.254003 2.981632 0
-4.7502851 -13.28162 2.9816337 0
-4.6736298 -13.308803 2.9816353 0
-4.5968184 -13.335536 2.981637 0
-4.5198555 -13.361825 2.9816384 0
-4.4427361 -13.38767 2.9816401 0
-4.3654757 -13.413065 2.9816418 0
-4.2880635 -13.438022 2.9816432 0
-4.2105098 -13.462533 2.9816446 0
-4.1328192 -13.486595 2.9816461 0
-4.0549922 -13.510209 2.9816477 0
-3.9770236 -13.533368 2.9816489 0
-3.8989279 -13.556083 2.9816504 0
-3.8207004 -13.578339 2.9816518 0
-3.7423458 -13.60015 2.9816532 0
-3.6638691 -13.621512 2.9816544 0
-3.5852754 -13.642416 2.9816556 0
-3.5065498 -13.66286 2.981657 0
-3.427717 -13.682865 2.9816582 0
-3.3487668 -13.702406 2.9816594 0
-3.2696993 -13.721493 2.9816606 0
-3.1905391 -13.740121 2.9816618 0
-3.1112571 -13.758295 2.9816628 0
-3.031877 -13.77601 2.9816639 0
-2.9523995 -13.793265 2.9816649 0
-2.8728147 -13.810067 2.9816658 0
-2.7931418 -13.826406 2.981667 0
-2.713376 -13.842284 2.981668 0
-2.6335177 -13.857704 2.9816689 0
-2.5535762 -13.87266 2.9816699 0
-2.4735372 -13.887162 2.9816706 0
-2.3934298 -13.901196 2.9816716 0
-2.3132393 -13.914769 2.9816723 0
-2.2329612 -13.927885 2.9816732 0
-2.1526241 -13.940526 2.981674 0
-2.0722044 -13.952714 2.9816747 0
-1.9917208 -13.964428 2.9816754 0
-1.9111642 -13.975687 2.9816761 0
-1.8305539 -13.986474 2.9816768 0
-1.749885 -13.996801 2.9816773 0
-1.6691476 -14.00666 2.981678 0
-1.5883615 -14.016054 2.9816785 0
-1.5075167 -14.024981 2.9816792 0
-1.4266232 -14.033447 2.9816797 0
-1.3456955 -14.04144 2.9816802 0
-1.2647042 -14.048965 2.9816806 0
-1.183674 -14.05603 2.9816811 0
-1.1026095 -14.062622 2.9816813 0
-1.021511 -14.068745 2.9816818 0
-0.94037312 -14.074404 2.9816821 0
-0.85920608 -14.079595 2.9816825 0
-0.77800983 -14.084321 2.9816828 0
-0.69677937 -14.088574 2.981683 0
-0.61553913 -14.092354 2.9816833 0
-0.53427446 -14.095669 2.9816835 0
-0.45299035 -14.09852 2.9816837 0
-0.37169152 -14.100893 2.9816837 0
-0.29038295 -14.102807 2.981684 0
-0.20905969 -14.104243 2.981684 0
-0.12773645 -14.105215 2.981684 0
-0.046403445 -14.105722 2.981684 0
0.034927119 -14.105747 2.981684 0
0.11626745 -14.105317 2.981684 0
0.19758582 -14.104409 2.981684 0
0.27891147 -14.103037 2.981684 0
0.36022496 -14.101192 2.9816837 0
0.4415189 -14.098882 2.9816837 0
0.5228129 -14.096099 2.9816835 0
0.60407996 -14.092852 2.9816833 0
0.68532997 -14.089126 2.981683 0
0.76655072 -14.084946 2.9816828 0
0.84775186 -14.080293 2.9816825 0
0.92892617 -14.075166 2.9816823 0
1.0100638 -14.069575 2.9816818 0
1.091177 -14.063516 2.9816816 0
1.1722488 -14.056987 2.9816811 0
1.2532693 -14.04999 2.9816806 0
1.3342679 -14.042529 2.9816802 0
1.4152102 -14.034599 2.9816797 0
1.4961087 -14.026206 2.9816792 0
1.5769583 -14.017344 2.9816787 0
1.6577542 -14.008018 2.981678 0
1.7384939 -13.998222 2.9816775 0
1.8191775 -13.987959 2.9816768 0
1.8998049 -13.977236 2.9816761 0
1.980364 -13.966044 2.9816756 0
2.0608547 -13.95439 2.9816749 0
2.1412845 -13.94227 2.981674 0
2.2216361 -13.929692 2.9816732 0
2.3019142 -13.91665 2.9816725 0
2.3821218 -13.903134 2.9816716 0
2.4622488 -13.88917 2.9816709 0
2.5422854 -13.874741 2.9816699 0
2.6222403 -13.859843 2.9816689 0
2.7021182 -13.844492 2.981668 0
2.7818923 -13.828671 2.981667 0
2.8615859 -13.812397 2.9816661 0
2.9411783 -13.795669 2.9816651 0
3.0206618 -13.778477 2.9816639 0
3.100065 -13.76082 2.981663 0
3.1793582 -13.742715 2.9816618 0
3.2585452 -13.724145 2.9816606 0
3.3376186 -13.705127 2.9816597 0
3.4165823 -13.685644 2.9816585 0
3.4954398 -13.665712 2.981657 0
3.5741689 -13.645322 2.9816558 0
3.6527956 -13.624487 2.9816546 0
3.7312868 -13.603193 2.9816532 0
3.8096585 -13.58144 2.981652 0
3.8879018 -13.559248 2.9816506 0
3.966017 -13.536596 2.9816492 0
4.0439997 -13.513496 2.9816477 0
4.1218448 -13.489951 2.9816463 0
4.1995597 -13.465952 2.9816449 0
4.2771354 -13.441508 2.9816434 0
4.3545585 -13.416621 2.981642 0
4.4318523 -13.391274 2.9816403 0
4.508985 -13.365494 2.9816387 0
4.5859747 -13.339269 2.9816372 0
4.6628056 -13.312598 2.9816356 0
4.7394853 -13.285484 2.9816339 0
4.8160076 -13.257926 2.9816322 0
4.8923659 -13.229928 2.9816306 0
4.9685712 -13.20149 2.9816287 0
5.0445986 -13.172618 2.981627 0
5.1204643 -13.143302 2.9816251 0
5.1961627 -13.11355 2.9816234 0
-5.0878878 -11.621141 2.9815321 0
-5.0207977 -11.650291 2.9815338 0
-4.9535418 -11.679056 2.9815357 0
-4.8861299 -11.707431 2.9815373 0
-4.818542 -11.735414 2.981539 0
-4.7507977 -11.763007 2.9815407 0
-4.6828971 -11.790218 2.9815423 0
-4.6148405 -11.817025 2.981544 0
-4.546628 -11.843446 2.9815457 0
-4.4782634 -11.869467 2.9815474 0
-4.4097528 -11.895102 2.9815488 0
-4.3411055 -11.920336 2.9815505 0
-4.2722969 -11.945169 2.9815519 0
-4.2033515 -11.969613 2.9815533 0
-4.1342692 -11.993656 2.9815547 0
-4.0650458 -12.017308 2.9815562 0
-3.9956903 -12.040545 2.9815576 0
-3.926203 -12.063393 2.981559 0
-3.8565838 -12.085834 2.9815605 0
-3.7868328 -12.107875 2.9815619 0
-3.7169597 -12.129516 2.9815631 0
-3.6469598 -12.150751 2.9815645 0
-3.5768378 -12.171581 2.9815657 0
-3.5065985 -12.192011 2.9815669 0
-3.4362469 -12.212026 2.9815681 0
-3.3657732 -12.231645 2.9815693 0
-3.2951972 -12.250854 2.9815705 0
-3.2245038 -12.269652 2.9815717 0
-3.153708 -12.288046 2.9815729 0
-3.0827997 -12.306029 2.9815741 0
-3.0117986 -12.323603 2.981575 0
-2.9406903 -12.340775 2.981576 0
-2.8694892 -12.357523 2.9815772 0
-2.7981904 -12.373871 2.9815781 0
-2.7267938 -12.389804 2.9815791 0
-2.6553144 -12.405321 2.98158 0
-2.5837371 -12.420428 2.981581 0
-2.5120819 -12.435126 2.9815819 0
-2.4403389 -12.449409 2.9815826 0
-2.3685174 -12.46327 2.9815836 0
-2.296623 -12.476727 2.9815843 0
-2.2246356 -12.489764 2.9815853 0
-2.1525898 -12.502387 2.981586 0
-2.0804658 -12.514594 2.9815867 0
-2.0082734 -12.526385 2.9815874 0
-1.9360175 -12.537758 2.9815881 0
-1.8636883 -12.548719 2.9815888 0
-1.7913007 -12.559258 2.9815896 0
-1.7188495 -12.56938 2.98159 0
-1.6463593 -12.579082 2.9815907 0
-1.5737958 -12.588374 2.9815912 0
-1.5011835 -12.597237 2.9815917 0
-1.4285321 -12.605688 2.9815922 0
-1.3558222 -12.613716 2.9815929 0
-1.2830683 -12.621328 2.9815931 0
-1.2102802 -12.628515 2.9815936 0
-1.1374384 -12.635288 2.9815941 0
-1.0645624 -12.641641 2.9815946 0
-0.99166197 -12.647569 2.9815948 0
-0.91871762 -12.653076 2.9815953 0
-0.8457489 -12.658169 2.9815955 0
-0.77275085 -12.662832 2.9815958 0
-0.69972348 -12.667075 2.981596 0
-0.62666684 -12.670903 2.9815962 0
-0.55360538 -12.674302 2.9815965 0
-0.48050967 -12.67729 2.9815967 0
-0.4074091 -12.679849 2.9815967 0
-0.33428898 -12.681982 2.9815969 0
-0.26115909 -12.683706 2.9815969 0
-0.18802431 -12.684999 2.9815972 0
-0.11487979 -12.685869 2.9815972 0
-0.041735265 -12.686323 2.9815972 0
0.031411707 -12.686353 2.9815972 0
0.104566 -12.685962 2.9815972 0
0.17770322 -12.685146 2.9815972 0
0.25085017 -12.683911 2.9815972 0
0.32397762 -12.682256 2.9815969 0
0.39709285 -12.680171 2.9815969 0
0.47020319 -12.677675 2.9815967 0
0.54329157 -12.674751 2.9815965 0
0.61636776 -12.671406 2.9815962 0
0.68941462 -12.667642 2.981596 0
0.76244444 -12.663457 2.9815958 0
0.8354547 -12.658848 2.9815955 0
0.90842342 -12.653818 2.9815953 0
0.9813751 -12.648369 2.9815948 0
1.0542901 -12.6425 2.9815946 0
1.1271588 -12.636206 2.9815941 0
1.2000054 -12.629497 2.9815938 0
1.2728057 -12.622368 2.9815934 0
1.3455669 -12.614815 2.9815929 0
1.4182744 -12.606846 2.9815924 0
1.4909405 -12.598457 2.9815919 0
1.5635576 -12.589643 2.9815912 0
1.6361212 -12.58042 2.9815907 0
1.7086382 -12.570771 2.9815903 0
1.7810893 -12.560713 2.9815896 0
1.8534795 -12.550229 2.9815888 0
1.9258183 -12.53933 2.9815881 0
1.9980839 -12.528012 2.9815876 0
2.0702837 -12.516284 2.9815869 0
2.1424174 -12.504136 2.981586 0
2.2144878 -12.491568 2.9815853 0
2.2864678 -12.478589 2.9815845 0
2.358377 -12.465196 2.9815836 0
2.4302154 -12.451386 2.9815829 0
2.5019634 -12.437168 2.9815819 0
2.5736382 -12.422529 2.981581 0
2.6452215 -12.40748 2.9815803 0
2.716712 -12.392016 2.9815793 0
2.7881231 -12.376138 2.9815784 0
2.8594341 -12.359854 2.9815772 0
2.9306583 -12.343159 2.9815762 0
3.0017717 -12.32605 2.9815753 0
3.0727897 -12.308535 2.9815741 0
3.1437125 -12.290601 2.9815731 0
3.2145195 -12.27227 2.9815719 0
3.2852323 -12.253526 2.9815707 0
3.3558304 -12.23438 2.9815695 0
3.4263127 -12.214824 2.9815683 0
3.496685 -12.194854 2.9815671 0
3.5669413 -12.174487 2.981566 0
3.6370769 -12.15371 2.9815645 0
3.7070878 -12.132529 2.9815633 0
3.7769804 -12.110952 2.9815621 0
3.8467534 -12.088964 2.9815607 0
3.9163859 -12.066577 2.9815593 0
3.9858978 -12.043789 2.9815578 0
4.055274 -12.0206 2.9815564 0
4.1245122 -11.997017 2.981555 0
4.1936164 -11.973027 2.9815536 0
4.2625799 -11.948643 2.9815521 0
4.3314018 -11.923862 2.9815507 0
4.4000773 -11.898682 2.981549 0
4.4686151 -11.8731 2.9815474 0
4.5369902 -11.847139 2.9815459 0
4.6052227 -11.820777 2.9815443 0
4.673306 -11.79402 2.9815426 0
-4.6182384 -10.548422 2.9814665 0
-4.5573401 -10.574882 2.981468 0
-4.4962955 -10.60099 2.9814696 0
-4.4350991 -10.626742 2.9814713 0
-4.3737512 -10.652147 2.9814727 0
-4.3122621 -10.677192 2.9814744 0
-4.2506266 -10.701883 2.9814758 0
-4.1888537 -10.72622 2.9814773 0
-4.1269398 -10.750204 2.9814787 0
-4.064889 -10.773822 2.9814801 0
-4.0027018 -10.797089 2.9814816 0
-3.9403825 -10.819994 2.981483 0
-3.8779263 -10.842538 2.9814844 0
-3.8153481 -10.864725 2.9814858 0
-3.7526431 -10.886547 2.981487 0
-3.6898112 -10.908011 2.9814885 0
-3.6268523 -10.929106 2.9814897 0
-3.5637808 -10.949838 2.9814911 0
-3.5005925 -10.970209 2.9814923 0
-3.4372771 -10.990219 2.9814935 0
-3.3738542 -11.009857 2.9814947 0
-3.3103189 -11.029135 2.9814959 0
-3.2466667 -11.048046 2.981497 0
-3.1829119 -11.066581 2.9814982 0
-3.1190495 -11.084755 2.9814992 0
-3.0550895 -11.102562 2.9815004 0
-2.9910173 -11.119994 2.9815013 0
-2.926857 -11.137059 2.9815025 0
-2.8625944 -11.153754 2.9815035 0
-2.7982292 -11.170082 2.9815044 0
-2.7337859 -11.186029 2.9815054 0
-2.669235 -11.201611 2.9815063 0
-2.6046109 -11.216815 2.9815073 0
-2.5398941 -11.231649 2.9815083 0
-2.4750798 -11.246117 2.9815092 0
-2.4102068 -11.260204 2.9815099 0
-2.3452408 -11.273915 2.9815109 0
-2.2801969 -11.287254 2.9815116 0
-2.2150748 -11.300219 2.9815125 0
-2.1498845 -11.312801 2.9815133 0
-2.0846207 -11.325013 2.981514 0
-2.0192838 -11.336849 2.9815147 0
-1.9538883 -11.348305 2.9815154 0
-1.8884245 -11.359384 2.9815161 0
-1.8228923 -11.370088 2.9815166 0
-1.7573063 -11.380415 2.9815173 0
-1.6916521 -11.390356 2.981518 0
-1.6259489 -11.399926 2.9815185 0
-1.5601872 -11.409111 2.981519 0
-1.4943864 -11.417925 2.9815197 0
-1.4285221 -11.426348 2.9815202 0
-1.3626139 -11.4344 2.9815207 0
-1.2966666 -11.44207 2.9815211 0
-1.2306657 -11.449355 2.9815216 0
-1.1646305 -11.45626 2.9815221 0
-1.0985612 -11.462788 2.9815223 0
-1.032443 -11.468935 2.9815228 0
-0.9662956 -11.474697 2.981523 0
-0.90012372 -11.480078 2.9815235 0
-0.83391279 -11.485083 2.9815238 0
-0.76767743 -11.489697 2.981524 0
-0.7014128 -11.493936 2.9815242 0
-0.6351335 -11.497788 2.9815245 0
-0.56882 -11.50126 2.9815247 0
-0.50250167 -11.504351 2.9815249 0
-0.43615404 -11.507055 2.9815252 0
-0.3697966 -11.509379 2.9815252 0
-0.30342942 -11.511323 2.9815254 0
-0.23705734 -11.51288 2.9815254 0
-0.17067063 -11.514052 2.9815254 0
-0.10427415 -11.514844 2.9815257 0
-0.037882552 -11.515259 2.9815261 0
0.028511493 -11.515283 2.9815257 0
0.094915301 -11.514932 2.9815257 0
0.16130203 -11.51419 2.9815254 0
0.22769119 -11.513066 2.9815254 0
0.29407057 -11.511562 2.9815254 0
0.36043531 -11.509678 2.9815252 0
0.42680004 -11.507407 2.9815252 0
0.49314037 -11.504756 2.9815249 0
0.5594734 -11.501719 2.9815247 0
0.62577957 -11.498305 2.9815245 0
0.69206619 -11.494502 2.9815242 0
0.75833327 -11.490317 2.981524 0
0.82456863 -11.485757 2.9815238 0
0.890782 -11.480805 2.9815235 0
0.9569661 -11.475478 2.981523 0
1.0231135 -11.46977 2.9815228 0
1.0892341 -11.463681 2.9815223 0
1.1553133 -11.457207 2.9815221 0
1.2213582 -11.450352 2.9815216 0
1.2873567 -11.44312 2.9815211 0
1.3533137 -11.435503 2.9815207 0
1.4192293 -11.427505 2.9815202 0
1.4850911 -11.419136 2.9815197 0
1.5509163 -11.41038 2.9815192 0
1.6166804 -11.401245 2.9815185 0
1.6823884 -11.391728 2.981518 0
1.7480452 -11.381836 2.9815173 0
1.8136408 -11.371562 2.9815168 0
1.8791804 -11.360923 2.9815161 0
1.9446541 -11.349893 2.9815154 0
2.0100691 -11.338487 2.9815147 0
2.0754061 -11.326709 2.981514 0
2.1406794 -11.31455 2.9815133 0
2.2058845 -11.302011 2.9815125 0
2.2710114 -11.289106 2.9815118 0
2.3360701 -11.275815 2.9815109 0
2.4010456 -11.262158 2.9815102 0
2.4659333 -11.248125 2.9815092 0
2.5307527 -11.233716 2.9815083 0
2.595484 -11.218935 2.9815075 0
2.6601326 -11.203774 2.9815066 0
2.7246821 -11.188247 2.9815056 0
2.7891462 -11.172354 2.9815047 0
2.8535237 -11.156079 2.9815037 0
2.9177938 -11.139434 2.9815025 0
2.9819758 -11.122422 2.9815016 0
3.0460579 -11.105039 2.9815004 0
3.1100373 -11.08729 2.9814994 0
3.1739082 -11.06917 2.9814982 0
3.2376814 -11.050684 2.981497 0
3.3013422 -11.031821 2.9814961 0
3.3648944 -11.012598 2.9814949 0
3.4283357 -10.993012 2.9814937 0
3.4916644 -10.973052 2.9814925 0
3.5548725 -10.952734 2.9814911 0
3.6179657 -10.932055 2.9814899 0
3.6809406 -10.911006 2.9814887 0
3.7437873 -10.889595 2.9814873 0
3.8065107 -10.867823 2.9814861 0
3.8691108 -10.845689 2.9814847 0
3.9315779 -10.823194 2.9814832 0
3.9939156 -10.800337 2.9814818 0
4.056129 -10.777124 2.9814804 0
4.1181931 -10.753554 2.9814789 0
4.1801252 -10.729629 2.9814775 0
4.2419248 -10.705337 2.9814761 0
-4.2237806 -9.6474504 2.9814112 0
-4.1680822 -9.671649 2.9814129 0
-4.1122475 -9.6955309 2.9814143 0
-4.0562806 -9.7190762 2.9814157 0
-4.0001721 -9.7423134 2.9814172 0
-3.9439368 -9.7652187 2.9814186 0
-3.8875697 -9.787797 2.9814196 0
-3.8310659 -9.8100576 2.9814212 0
-3.7744448 -9.8319912 2.9814227 0
-3.7176917 -9.8535929 2.9814239 0
-3.6608167 -9.8748674 2.9814253 0
-3.6038148 -9.8958197 2.9814265 0
-3.5467005 -9.9164391 2.9814277 0
-3.4894643 -9.9367275 2.9814291 0
-3.4321108 -9.9566832 2.9814303 0
-3.3746498 -9.9763079 2.9814315 0
-3.3170717 -9.9956093 2.9814327 0
-3.2593861 -10.014569 2.9814339 0
-3.2015882 -10.033207 2.9814348 0
-3.143688 -10.051503 2.9814365 0
-3.08568 -10.069467 2.981437 0
-3.0275698 -10.087089 2.9814382 0
-2.9693568 -10.104383 2.9814394 0
-2.9110463 -10.121342 2.9814403 0
-2.852643 -10.137958 2.9814413 0
-2.794137 -10.154243 2.9814422 0
-2.7355433 -10.170184 2.9814434 0
-2.6768618 -10.185795 2.9814444 0
-2.6180825 -10.201063 2.9814451 0
-2.5592251 -10.21599 2.981446 0
-2.5002797 -10.230585 2.981447 0
-2.4412465 -10.244838 2.9814479 0
-2.3821402 -10.258739 2.9814487 0
-2.3229506 -10.272308 2.9814496 0
-2.2636781 -10.285536 2.9814503 0
-2.2043374 -10.298417 2.981451 0
-2.1449232 -10.310966 2.981452 0
-2.0854359 -10.323163 2.9814527 0
-2.0258756 -10.335013 2.9814534 0
-1.9662515 -10.346527 2.9814539 0
-1.906564 -10.357695 2.9814546 0
-1.8468033 -10.368521 2.9814553 0
-1.7869937 -10.378994 2.981456 0
-1.7271255 -10.389126 2.9814568 0
-1.6671841 -10.398916 2.9814572 0
-1.6072036 -10.40836 2.9814579 0
-1.5471646 -10.417456 2.9814584 0
-1.4870719 -10.426206 2.9814589 0
-1.4269204 -10.434609 2.9814594 0
-1.3667397 -10.442661 2.9814599 0
-1.3065054 -10.450371 2.9814603 0
-1.2462223 -10.457734 2.9814608 0
-1.1859146 -10.464746 2.9814613 0
-1.1255533 -10.471411 2.9814618 0
-1.0651529 -10.47773 2.981462 0
-1.0047281 -10.483696 2.9814625 0
-0.94425929 -10.489321 2.9814627 0
-0.88376123 -10.49459 2.9814632 0
-0.82323879 -10.499512 2.9814634 0
-0.76268214 -10.504082 2.9814637 0
-0.70210594 -10.50831 2.9814639 0
-0.64151025 -10.512182 2.9814641 0
-0.5808804 -10.515708 2.9814644 0
-0.52023584 -10.518887 2.9814646 0
-0.45958161 -10.521708 2.9814649 0
-0.39890292 -10.524184 2.9814649 0
-0.33821443 -10.526308 2.9814651 0
-0.27751619 -10.528081 2.9814651 0
-0.21680328 -10.529507 2.9814653 0
-0.15609528 -10.530586 2.9814653 0
-0.095372632 -10.531308 2.9814653 0
-0.034649979 -10.53169 2.9814653 0
0.026077557 -10.531713 2.9814653 0
0.086809978 -10.531382 2.9814653 0
0.14752531 -10.530708 2.9814653 0
0.20824309 -10.529677 2.9814653 0
0.26895109 -10.528306 2.9814651 0
0.32964933 -10.526582 2.9814651 0
0.39034513 -10.524502 2.9814649 0
0.4510214 -10.52208 2.9814649 0
0.51168549 -10.519301 2.9814646 0
0.57232761 -10.516176 2.9814644 0
0.63295257 -10.512705 2.9814641 0
0.69355804 -10.508877 2.9814639 0
0.75413668 -10.504702 2.9814637 0
0.81469578 -10.500175 2.9814634 0
0.87522554 -10.495302 2.9814632 0
0.9357236 -10.490083 2.981463 0
0.99619478 -10.484511 2.9814625 0
1.0566342 -10.478594 2.9814622 0
1.1170346 -10.47232 2.9814618 0
1.1773959 -10.465708 2.9814613 0
1.237723 -10.458745 2.981461 0
1.2980038 -10.45143 2.9814606 0
1.3582455 -10.443774 2.9814601 0
1.4184432 -10.435761 2.9814596 0
1.4785922 -10.427407 2.9814591 0
1.538685 -10.418711 2.9814584 0
1.5987362 -10.409658 2.9814579 0
1.6587313 -10.400273 2.9814575 0
1.7186702 -10.390528 2.9814568 0
1.7785506 -10.380445 2.9814563 0
1.8383774 -10.370014 2.9814556 0
1.898138 -10.359239 2.9814546 0
1.9578353 -10.348125 2.9814539 0
2.0174739 -10.336656 2.9814539 0
2.0770323 -10.324854 2.9814527 0
2.1365366 -10.3127 2.981452 0
2.1959605 -10.300205 2.9814513 0
2.2553086 -10.287373 2.9814506 0
2.3145933 -10.274195 2.9814496 0
2.3737924 -10.260678 2.9814489 0
2.4329185 -10.246817 2.9814479 0
2.4919565 -10.232617 2.9814472 0
2.550914 -10.218071 2.9814463 0
2.609791 -10.203188 2.9814453 0
2.6685703 -10.187968 2.9814444 0
2.7272763 -10.172412 2.9814434 0
2.7858822 -10.156513 2.9814425 0
2.8443966 -10.140273 2.9814415 0
2.9028146 -10.123701 2.9814405 0
2.9611387 -10.106791 2.9814394 0
3.0193601 -10.089551 2.9814384 0
3.0774851 -10.071968 2.981437 0
3.1355064 -10.054052 2.9814367 0
3.1934299 -10.035806 2.9814351 0
3.2512362 -10.017217 2.9814339 0
3.3089414 -9.9983006 2.9814327 0
3.3665366 -9.9790573 2.9814317 0
3.4240184 -9.9594727 2.9814303 0
3.4813828 -9.9395609 2.9814291 0
3.538635 -9.9193211 2.9814279 0
3.5957675 -9.8987446 2.9814267 0
3.6527817 -9.8778419 2.9814255 0
3.7096786 -9.8566113 2.9814241 0
3.7664413 -9.8350582 2.9814229 0
3.823087 -9.8131685 2.9814215 0
3.8796055 -9.7909517 2.9814198 0
-3.8874769 -8.8793011 2.9813643 0
-3.8362124 -8.901576 2.9813657 0
-3.7848256 -8.9235487 2.9813671 0
-3.7333167 -8.9452238 2.9813683 0
-3.6816761 -8.9666052 2.9813697 0
-3.6299136 -8.9876947 2.9813709 0
-3.5780337 -9.0084753 2.9813721 0
-3.5260365 -9.028964 2.9813735 0
-3.4739175 -9.0491495 2.9813747 0
-3.4216859 -9.0690327 2.9813759 0
-3.3693373 -9.0886126 2.9813771 0
-3.3168764 -9.1078949 2.9813783 0
-3.2643032 -9.1268692 2.9813795 0
-3.2116272 -9.1455412 2.9813807 0
-3.1588442 -9.1639099 2.9813817 0
-3.1059535 -9.1819763 2.9813828 0
-3.0529604 -9.1997356 2.981384 0
-2.9998646 -9.2171917 2.981385 0
-2.9466665 -9.2343349 2.9813859 0
-2.8933802 -9.2511759 2.9813871 0
-2.8399916 -9.267704 2.9813881 0
-2.7865102 -9.2839346 2.981389 0
-2.7329311 -9.2998476 2.98139 0
-2.6792641 -9.3154583 2.981391 0
-2.6255093 -9.3307514 2.9813919 0
-2.5716665 -9.3457413 2.9813929 0
-2.5177357 -9.3604145 2.9813938 0
-2.463722 -9.374774 2.9813945 0
-2.4096253 -9.3888273 2.9813955 0
-2.3554506 -9.4025669 2.9813964 0
-2.3012025 -9.4159946 2.9813972 0
-2.2468667 -9.4291153 2.9813979 0
-2.1924672 -9.4419127 2.9813988 0
-2.1379898 -9.4543982 2.9813995 0
-2.0834389 -9.4665709 2.9814003 0
-2.0288246 -9.4784317 2.981401 0
-1.9741372 -9.489975 2.9814017 0
-1.9193861 -9.5012054 2.9814024 0
-1.8645717 -9.5121136 2.9814031 0
-1.8096938 -9.5227098 2.9814036 0
-1.7547573 -9.5329838 2.9814043 0
-1.6997572 -9.542944 2.981405 0
-1.6447133 -9.5525875 2.9814055 0
-1.5896059 -9.5619144 2.981406 0
-1.5344448 -9.5709276 2.9814067 0
-1.4792348 -9.5796146 2.9814072 0
-1.4239761 -9.5879879 2.9814076 0
-1.3686635 -9.5960398 2.9814081 0
-1.3133119 -9.6037741 2.9814086 0
-1.2579165 -9.611186 2.9814091 0
-1.202477 -9.6182814 2.9814095 0
-1.1469985 -9.6250582 2.98141 0
-1.0914857 -9.6315088 2.9814103 0
-1.0359291 -9.6376467 2.9814107 0
-0.98033828 -9.6434574 2.981411 0
-0.92472792 -9.6489506 2.9814115 0
-0.86907363 -9.6541262 2.9814117 0
-0.8133949 -9.6589794 2.9814119 0
-0.7576918 -9.6635103 2.9814124 0
-0.70195937 -9.6677198 2.9814126 0
-0.6462025 -9.6716061 2.9814129 0
-0.59042615 -9.6751709 2.9814131 0
-0.53463024 -9.6784134 2.9814131 0
-0.47881001 -9.6813374 2.9814134 0
-0.4229897 -9.6839352 2.9814136 0
-0.36714008 -9.6862154 2.9814136 0
-0.31128561 -9.6881733 2.9814138 0
-0.25541645 -9.6898098 2.9814138 0
-0.19954243 -9.6911182 2.9814141 0
-0.14366353 -9.6921043 2.9814141 0
-0.08777485 -9.6927738 2.9814141 0
-0.031886183 -9.6931152 2.9814141 0
0.024000047 -9.6931448 2.9814141 0
0.07989604 -9.6928415 2.9814141 0
0.13577496 -9.6922216 2.9814141 0
0.19166362 -9.6912746 2.9814141 0
0.24753764 -9.6900148 2.9814138 0
0.30340189 -9.6884174 2.9814138 0
0.35926369 -9.6865091 2.9814136 0
0.41511086 -9.6842775 2.9814136 0
0.47094584 -9.6817188 2.9814134 0
0.52675641 -9.6788473 2.9814131 0
0.58255231 -9.6756496 2.9814131 0
0.638336 -9.6721287 2.9814129 0
0.69409043 -9.6682816 2.9814126 0
0.74983013 -9.6641207 2.9814124 0
0.80553818 -9.6596384 2.9814122 0
0.86121684 -9.6548338 2.9814117 0
0.91687846 -9.6497021 2.9814115 0
0.97250104 -9.6442575 2.9814112 0
1.0280918 -9.6384859 2.9814107 0
1.0836509 -9.6323977 2.9814105 0
1.1391709 -9.6259861 2.98141 0
1.1946543 -9.6192532 2.9814095 0
1.2500962 -9.6122074 2.9814091 0
1.305504 -9.6048384 2.9814086 0
1.3608603 -9.5971537 2.9814084 0
1.4161704 -9.5891409 2.9814076 0
1.4714414 -9.5808153 2.9814072 0
1.5266612 -9.5721731 2.9814067 0
1.5818247 -9.5632076 2.9814062 0
1.636937 -9.5539255 2.9814055 0
1.6920029 -9.5443258 2.981405 0
1.7470005 -9.5344095 2.9814043 0
1.8019444 -9.5241795 2.9814038 0
1.8568369 -9.513628 2.9814031 0
1.9116538 -9.502759 2.9814024 0
1.9664195 -9.4915771 2.9814017 0
2.0211117 -9.480073 2.981401 0
2.0757358 -9.4682665 2.9814003 0
2.1302989 -9.4561377 2.9813995 0
2.1847837 -9.4436913 2.9813988 0
2.2392027 -9.430933 2.9813981 0
2.293541 -9.417861 2.9813974 0
2.3478036 -9.4044819 2.9813964 0
2.4019957 -9.3907814 2.9813957 0
2.4560947 -9.3767776 2.9813948 0
2.510123 -9.3624611 2.9813938 0
2.5640609 -9.347827 2.9813931 0
2.6179185 -9.3328857 2.9813921 0
2.6716843 -9.3176317 2.9813912 0
2.7253647 -9.3020658 2.9813902 0
2.7789536 -9.286191 2.9813893 0
2.8324473 -9.2700148 2.9813883 0
2.8858507 -9.2535257 2.9813871 0
2.9391611 -9.2367287 2.9813862 0
2.9923642 -9.2196293 2.9813852 0
3.0454769 -9.2022171 2.981384 0
3.0984848 -9.1844969 2.9813831 0
3.1513889 -9.1664791 2.9813819 0
3.2041879 -9.1481495 2.9813807 0
3.2568808 -9.1295214 2.9813797 0
3.3094664 -9.1105862 2.9813786 0
3.3619394 -9.0913477 2.9813774 0
3.4143052 -9.0718069 2.9813762 0
3.4665501 -9.0519724 2.981375 0
3.5186825 -9.0318308 2.9813735 0
3.5707052 -9.0113821 2.9813724 0
-3.5970764 -8.2159996 2.9813237 0
-3.5496397 -8.2366104 2.9813249 0
-3.5020862 -8.256937 2.9813263 0
-3.4544299 -8.2770014 2.9813275 0
-3.4066467 -8.2967863 2.9813287 0
-3.3587511 -8.3162975 2.9813299 0
-3.3107481 -8.3355217 2.9813311 0
-3.2626281 -8.3544769 2.9813323 0
-3.2144053 -8.3731537 2.9813333 0
-3.1660752 -8.391552 2.9813344 0
-3.1176379 -8.4096718 2.9813356 0
-3.0690978 -8.4275141 2.9813366 0
-3.0204551 -8.4450722 2.9813378 0
-2.9717102 -8.4623528 2.9813387 0
-2.9228673 -8.4793444 2.9813399 0
-2.8739319 -8.4960585 2.9813409 0
-2.8248937 -8.5124941 2.9813418 0
-2.7757678 -8.5286417 2.9813428 0
-2.7265441 -8.5445108 2.9813437 0
-2.6772375 -8.560092 2.9813447 0
-2.6278381 -8.5753851 2.9813457 0
-2.5783508 -8.5903997 2.9813466 0
-2.5287707 -8.6051264 2.9813476 0
-2.4791174 -8.6195641 2.9813485 0
-2.4293761 -8.6337194 2.9813492 0
-2.3795569 -8.6475821 2.9813502 0
-2.3296545 -8.6611662 2.9813509 0
-2.2796788 -8.6744566 2.9813519 0
-2.2296252 -8.6874552 2.9813526 0
-2.1794934 -8.7001743 2.9813533 0
-2.1292932 -8.7125969 2.9813542 0
-2.0790198 -8.7247305 2.981355 0
-2.0286827 -8.7365761 2.9813557 0
-1.9782728 -8.7481289 2.9813564 0
-1.9277991 -8.7593937 2.9813571 0
-1.8772669 -8.7703648 2.9813576 0
-1.8266615 -8.781045 2.9813583 0
-1.7760023 -8.7914352 2.981359 0
-1.7252845 -8.8015327 2.9813595 0
-1.6745032 -8.8113327 2.9813602 0
-1.6236732 -8.8208447 2.9813607 0
-1.5727797 -8.8300638 2.9813614 0
-1.521847 -8.8389893 2.9813619 0
-1.4708557 -8.8476171 2.9813623 0
-1.4198158 -8.8559523 2.9813628 0
-1.3687317 -8.8639936 2.9813633 0
-1.3175989 -8.8717384 2.9813638 0
-1.2664222 -8.8791895 2.9813643 0
-1.2152015 -8.8863478 2.9813647 0
-1.1639466 -8.8932028 2.9813652 0
-1.1126527 -8.8997707 2.9813657 0
-1.0613099 -8.9060402 2.9813659 0
-1.0099524 -8.9120121 2.9813664 0
-0.95854127 -8.9176855 2.9813666 0
-0.90710574 -8.9230661 2.9813671 0
-0.85564578 -8.9281445 2.9813673 0
-0.80414677 -8.9329348 2.9813676 0
-0.75263315 -8.9374266 2.9813678 0
-0.70109016 -8.9416161 2.9813681 0
-0.64951789 -8.945508 2.9813683 0
-0.59793097 -8.9491062 2.9813685 0
-0.54632455 -8.9524069 2.9813688 0
-0.49468881 -8.9554052 2.981369 0
-0.44304329 -8.9581099 2.9813693 0
-0.39138803 -8.9605179 2.9813693 0
-0.33971322 -8.9626265 2.9813695 0
-0.28802866 -8.9644384 2.9813695 0
-0.23633429 -8.9659519 2.9813697 0
-0.18463509 -8.9671631 2.9813697 0
-0.13293098 -8.9680758 2.9813697 0
-0.081222013 -8.9686966 2.9813697 0
-0.029508146 -8.9690132 2.9813697 0
0.022208164 -8.9690332 2.9813697 0
0.073926911 -8.9687595 2.9813697 0
0.12563346 -8.9681883 2.9813697 0
0.17734489 -8.96731 2.9813697 0
0.22904655 -8.9661427 2.9813697 0
0.280736 -8.964673 2.9813695 0
0.33242545 -8.9629002 2.9813695 0
0.38409781 -8.9608345 2.9813693 0
0.43576285 -8.9584713 2.9813693 0
0.48740345 -8.9558058 2.981369 0
0.53903431 -8.9528465 2.9813688 0
0.59065056 -8.9495897 2.9813685 0
0.64223987 -8.9460354 2.9813683 0
0.69381702 -8.9421825 2.9813681 0
0.7453649 -8.9380322 2.9813678 0
0.79688352 -8.933589 2.9813676 0
0.84838253 -8.9288425 2.9813673 0
0.89984983 -8.9238033 2.9813671 0
0.95129269 -8.9184618 2.9813666 0
1.0026964 -8.9128323 2.9813664 0
1.0540684 -8.9068995 2.9813659 0
1.1054113 -8.9006691 2.9813657 0
1.1567076 -8.894145 2.9813652 0
1.2079772 -8.8873291 2.9813647 0
1.2592027 -8.8802147 2.9813645 0
1.3103795 -8.8728027 2.981364 0
1.3615221 -8.865098 2.9813635 0
1.4126134 -8.8571043 2.9813631 0
1.4636558 -8.8488083 2.9813626 0
1.5146544 -8.8402243 2.9813619 0
1.5656066 -8.8313379 2.9813614 0
1.6164953 -8.8221579 2.9813609 0
1.6673375 -8.8126955 2.9813602 0
1.7181237 -8.8029299 2.9813597 0
1.7688488 -8.7928762 2.981359 0
1.8195226 -8.7825289 2.9813585 0
1.870128 -8.7718897 2.9813578 0
1.9206724 -8.7609615 2.9813571 0
1.9711583 -8.7497358 2.9813564 0
2.0215733 -8.7382231 2.9813557 0
2.0719299 -8.7264204 2.981355 0
2.1222057 -8.7143259 2.9813542 0
2.1724157 -8.7019434 2.9813535 0
2.2225573 -8.6892672 2.9813528 0
2.2726159 -8.6763086 2.9813519 0
2.3226111 -8.6630564 2.9813511 0
2.3725207 -8.6495218 2.9813502 0
2.4223547 -8.6356936 2.9813495 0
2.4721034 -8.6215773 2.9813485 0
2.5217712 -8.6071825 2.9813478 0
2.5713587 -8.592495 2.9813468 0
2.6208582 -8.5775242 2.9813459 0
2.6702709 -8.5622702 2.9813449 0
2.7195971 -8.5467234 2.981344 0
2.7688282 -8.5308981 2.981343 0
2.817976 -8.5147848 2.9813421 0
2.8670216 -8.4983988 2.9813411 0
2.9159729 -8.4817238 2.9813399 0
2.9648254 -8.4647608 2.981339 0
3.0135863 -8.4475241 2.981338 0
3.0622425 -8.4300051 2.9813368 0
3.1107972 -8.4122066 2.9813356 0
3.1592517 -8.3941259 2.9813347 0
3.2075927 -8.3757668 2.9813335 0
3.2558312 -8.3571339 2.9813323 0
3.303966 -8.338213 2.9813313 0
-3.3435411 -7.6369033 2.9812884 0
-3.2994444 -7.6560588 2.9812894 0
-3.2552502 -7.6749601 2.9812906 0
-3.2109435 -7.6936026 2.9812918 0
-3.1665294 -7.7119961 2.981293 0
-3.1220129 -7.7301259 2.9812939 0
-3.0773888 -7.7480021 2.9812951 0
-3.0326672 -7.7656193 2.9812963 0
-2.987843 -7.7829776 2.9812973 0
-2.9429162 -7.800077 2.9812982 0
-2.8978918 -7.8169227 2.9812994 0
-2.8527746 -7.8335047 2.9813004 0
-2.8075597 -7.8498282 2.9813013 0
-2.7622521 -7.8658876 2.9813023 0
-2.7168517 -7.8816838 2.9813032 0
-2.6713634 -7.8972206 2.9813042 0
-2.6257873 -7.9124942 2.9813051 0
-2.5801184 -7.9275041 2.9813061 0
-2.5343711 -7.942255 2.981307 0
-2.4885314 -7.9567375 2.981308 0
-2.4426134 -7.9709558 2.9813087 0
-2.3966124 -7.984911 2.9813097 0
-2.3505383 -7.9985976 2.9813104 0
-2.3043761 -8.0120153 2.9813113 0
-2.2581408 -8.0251799 2.981312 0
-2.2118273 -8.038065 2.9813128 0
-2.1654456 -8.0506878 2.9813137 0
-2.1189952 -8.0630407 2.9813144 0
-2.0724669 -8.0751257 2.9813151 0
-2.0258703 -8.0869427 2.9813159 0
-1.979215 -8.0984898 2.9813166 0
-1.9324816 -8.1097746 2.9813173 0
-1.8856945 -8.12078 2.981318 0
-1.8388391 -8.1315231 2.9813185 0
-1.7919201 -8.1419868 2.9813192 0
-1.7449474 -8.1521873 2.9813199 0
-1.6979064 -8.1621189 2.9813204 0
-1.6508214 -8.171772 2.9813211 0
-1.603673 -8.1811571 2.9813216 0
-1.5564758 -8.1902685 2.9813223 0
-1.5092297 -8.199111 2.9813228 0
-1.461925 -8.2076759 2.9813232 0
-1.4145812 -8.2159719 2.9813237 0
-1.3671838 -8.2239895 2.9813242 0
-1.3197423 -8.2317381 2.9813247 0
-1.272257 -8.2392139 2.9813251 0
-1.2247277 -8.2464113 2.9813256 0
-1.1771593 -8.253335 2.9813261 0
-1.1295471 -8.2599897 2.9813263 0
-1.0819055 -8.266367 2.9813268 0
-1.0342247 -8.2724657 2.9813273 0
-0.98650509 -8.2782955 2.9813275 0
-0.93876582 -8.283843 2.981328 0
-0.89098263 -8.2891207 2.9813282 0
-0.84317499 -8.2941256 2.9813285 0
-0.79533809 -8.2988424 2.9813287 0
-0.74747187 -8.3033009 2.9813292 0
-0.69958127 -8.3074703 2.9813294 0
-0.65167111 -8.311367 2.9813297 0
-0.60373652 -8.3149853 2.9813299 0
-0.55578244 -8.3183298 2.9813299 0
-0.50781369 -8.3213968 2.9813302 0
-0.45982543 -8.3241844 2.9813304 0
-0.41181761 -8.3266993 2.9813306 0
-0.36380494 -8.3289404 2.9813306 0
-0.31577271 -8.3308983 2.9813309 0
-0.26773071 -8.3325777 2.9813309 0
-0.21967894 -8.3339844 2.9813309 0
-0.17161742 -8.3351126 2.9813311 0
-0.12356567 -8.3359623 2.9813311 0
-0.075494379 -8.3365335 2.9813311 0
-0.027427971 -8.3368359 2.9813311 0
0.020640874 -8.3368559 2.9813311 0
0.068717048 -8.3365965 2.9813311 0
0.11677612 -8.3360596 2.9813311 0
0.16484497 -8.3352537 2.9813311 0
0.21290162 -8.3341599 2.9813309 0
0.26094848 -8.3327932 2.9813309 0
0.30899537 -8.331152 2.9813309 0
0.35702759 -8.3292284 2.9813306 0
0.4050476 -8.3270311 2.9813306 0
0.45305052 -8.3245554 2.9813304 0
0.50104374 -8.3218069 2.9813302 0
0.54901981 -8.318779 2.9813302 0
0.59697145 -8.3154736 2.9813299 0
0.64491093 -8.3118896 2.9813297 0
0.69282591 -8.308032 2.9813294 0
0.74071413 -8.3039017 2.9813292 0
0.7885828 -8.2994919 2.981329 0
0.83642459 -8.2948046 2.9813285 0
0.88423949 -8.2898436 2.9813282 0
0.93202025 -8.2846041 2.981328 0
0.97977418 -8.2790966 2.9813275 0
1.0274963 -8.2733059 2.9813273 0
1.0751818 -8.2672462 2.9813268 0
1.1228333 -8.2609034 2.9813266 0
1.1704456 -8.2542868 2.9813261 0
1.2180188 -8.2474022 2.9813256 0
1.265553 -8.2402487 2.9813251 0
1.3130432 -8.2328129 2.9813247 0
1.360492 -8.2250977 2.9813242 0
1.4078943 -8.2171192 2.9813237 0
1.4552526 -8.2088623 2.9813232 0
1.5025574 -8.2003317 2.9813228 0
1.5498133 -8.1915331 2.9813223 0
1.5970227 -8.1824608 2.9813218 0
1.6441711 -8.17311 2.9813211 0
1.6912732 -8.163496 2.9813206 0
1.7383142 -8.1536036 2.9813199 0
1.7852942 -8.1434422 2.9813194 0
1.8322229 -8.1330175 2.9813187 0
1.8790833 -8.1223097 2.981318 0
1.9258875 -8.1113377 2.9813173 0
1.9726232 -8.1000977 2.9813166 0
2.0192933 -8.0885887 2.9813159 0
2.065902 -8.0768118 2.9813151 0
2.112433 -8.0647612 2.9813144 0
2.1589 -8.0524464 2.9813137 0
2.2052917 -8.0398588 2.981313 0
2.2516124 -8.0270119 2.9813123 0
2.2978578 -8.0138912 2.9813113 0
2.344027 -8.0005074 2.9813106 0
2.390116 -7.986855 2.9813097 0
2.4361267 -7.9729342 2.9813089 0
2.4820569 -7.9587593 2.981308 0
2.5279088 -7.9443111 2.981307 0
2.5736682 -7.9295993 2.9813063 0
2.6193519 -7.9146285 2.9813054 0
2.6649425 -7.8993893 2.9813044 0
2.7104418 -7.8838911 2.9813035 0
2.7558532 -7.8681345 2.9813025 0
2.8011742 -7.8521042 2.9813015 0
2.8464026 -7.8358197 2.9813006 0
2.8915331 -7.8192768 2.9812994 0
2.9365747 -7.8024707 2.9812984 0
2.9815075 -7.7854052 2.9812975 0
3.0263464 -7.7680812 2.9812963 0
3.0710876 -7.7505031 2.9812953 0
-3.1200545 -7.1264443 2.9812572 0
-3.0789073 -7.1443205 2.9812582 0
-3.037667 -7.1619573 2.9812593 0
-2.9963195 -7.1793547 2.9812603 0
-2.9548743 -7.1965127 2.9812615 0
-2.9133313 -7.2134318 2.9812624 0
-2.8716905 -7.2301164 2.9812634 0
-2.829962 -7.2465568 2.9812644 0
-2.788131 -7.262753 2.9812655 0
-2.746212 -7.2787147 2.9812665 0
-2.7041955 -7.2944279 2.9812675 0
-2.662091 -7.3099012 2.9812684 0
-2.6199036 -7.3251309 2.9812694 0
-2.5776184 -7.3401213 2.9812701 0
-2.535255 -7.3548574 2.981271 0
-2.4928038 -7.3693595 2.981272 0
-2.4502745 -7.3836122 2.9812729 0
-2.4076622 -7.3976212 2.9812737 0
-2.3649719 -7.4113808 2.9812746 0
-2.3221984 -7.4248967 2.9812753 0
-2.2793469 -7.438168 2.9812763 0
-2.2364221 -7.4511857 2.981277 0
-2.1934192 -7.4639592 2.9812777 0
